1.2390389403767537 0.0 -5.36690210636778
1.8242417786757512 0.0 -4.373026642520334
-0.5825915039572382 0.0 -4.83348694757755
0.856991734414239 0.0 -3.1651626550176095
-1.2714522131571182 0.0 -3.61087893531474
-2.1085059854115484 0.0 -0.708854522337508
-0.11845455050304565 0.0 -2.2797032497019987
0.41203539831448666 0.0 -4.033286187755074
2.4200942028262054 0.0 -1.759856762672975
-0.804588150981997 0.0 -5.394424804192753
1.7438168847829125 0.0 -0.9216413793935505
0.9229972221545739 0.0 -3.4856108936521752
-0.5177199319581578 0.0 -0.9316937900513738
-0.8366751563126424 0.0 -2.699583688213558
0.11283339105269441 0.0 -4.315614836501791
1.8734387604626752 0.0 -2.027258203514252
1.9215412743074403 0.0 -2.524898838693803
1.1689482251873553 0.0 -2.4996921540313304
0.7906500441491469 0.0 -2.120113088816311
2.4705907908668427 0.0 -2.775044400900838
-1.5559510442517033 0.0 -4.190740769232157
-0.5513819532917341 0.0 -1.8749094123890093
-1.3469069812185102 0.0 -1.5404189422294547
-0.1938231973785589 0.0 -3.272591474686191
0.8728846828341013 0.0 -2.363056697044483
1.045043476470806 0.0 -4.149943846097397
-0.5442134060522119 0.0 -2.9598215168685202
0.9052186154176582 0.0 -0.5229072934395305
-1.1530947602786867 0.0 -4.8882074562187015
-1.8481245939687603 0.0 -3.8416709061010637
-2.281645327548188 0.0 -2.618043552377193
-0.5084070555388203 0.0 -2.4784364652198976
0.4368141351187931 0.0 -5.444033087980875
-0.04011862224091223 0.0 -0.8123979365935199
0.03358935549831621 0.0 -4.82756954892232
-1.0026020378526161 0.0 -4.2668126436910105
2.0890056751980834 0.0 -1.9613769955590334
0.8572582935743966 0.0 -4.2395032938063375
0.5173628438986109 0.0 -5.3926185823568495
-1.183780480793205 0.0 -4.57742760347579
-1.602805967589342 0.0 -1.746458666361554
-2.403566407483649 0.0 -5.0168452316191505
1.3767212297492017 0.0 -2.3607399559057427
-0.756067905205791 0.0 -1.9852501914055818
-1.5120453643603893 0.0 -0.6831065236260869
0.7848920844865588 0.0 -5.228881705528234
1.776319609142158 0.0 -0.7339859469100283
1.8944068320017413 0.0 -3.969849856563635
-0.7555349374077096 0.0 -1.790286592435943
0.18155890845238254 0.0 -5.184699648229714
-1.7766819394857758 0.0 -4.028226598913671
1.112503171145951 0.0 -3.9312447570964095
-0.3586333432481075 0.0 -2.8827811408141657
-1.7953127375783056 0.0 -2.2815672074631483
-2.2010869178775168 0.0 -1.6271928191943976
0.2593101416807104 0.0 -5.2697520768934805
1.5593949601123276 0.0 -4.463572024229865
-2.3072618548769652 0.0 -3.3765046905082468
2.3287430125096718 0.0 -2.2505177164622108
1.989550369207386 0.0 -2.476554849219882
1.7527744439170627 0.0 -0.6717518804875233
-1.1632954232928223 0.0 -3.145380993393312
-1.3918300943061417 0.0 -1.004100871540853
-0.7251981392578717 0.0 -4.794707328978183
-0.27404303172694044 0.0 -4.553715230216873
-2.417054173101088 0.0 -1.4472064257418467
-1.3068506405418794 0.0 -5.044790899826956
-1.1643366629581715 0.0 -1.9825382500244961
2.022363358316958 0.0 -3.0849320961807907
-1.3377398750093743 0.0 -3.28587467451451
2.084616600857082 0.0 -5.496401577671395
-1.4887395703653972 0.0 -2.8228475425564166
-2.446815281203465 0.0 -2.7990121276413267
2.0740007492476824 0.0 -5.079012203581868
-0.14543639382095375 0.0 -3.2353201306131374
1.8908245350960016 0.0 -4.809644053773497
1.6965365554089384 0.0 -3.265820661826689
0.48346368309486953 0.0 -1.5670258580612342
-0.37233713210979236 0.0 -0.9928714053042862
1.2744683432008541 0.0 -4.96298311058719
-2.419513738063279 0.0 -1.8856804892494323
-0.3755568470915964 0.0 -5.1414880357613155
1.3013393260314827 0.0 -2.334580007824847
-0.10788881070023804 0.0 -4.982469485784738
-0.7679943390624833 0.0 -2.099106582267904
-0.09593229242315582 0.0 -3.054851559736393
1.914347915925 0.0 -0.9437667639126817
1.3738959175592553 0.0 -3.9366762617388162
1.255454690017619 0.0 -4.576726237644249
-0.5754027987551436 0.0 -1.4633999644490316
-1.923382427321942 0.0 -1.0073379096581316
-0.031878016379472296 0.0 -2.086230022505934
-0.2789017581382973 0.0 -0.6523972586894384
0.37309760980065665 0.0 -0.6040860903196146
2.3445135211117254 0.0 -2.6583066285065056
-0.4884542644786838 0.0 -1.1788170398125413
-2.3289479890939107 0.0 -3.0001493231805823
-1.2559266097365214 0.0 -0.8324388380673442
-0.6653875395884596 0.0 -2.5494251936249412
0.10553792466086298 0.0 -4.343513188010049
0.9264177593095138 0.0 -1.2326921740857166
0.21071830104772626 0.0 -4.1952722501259805
2.384102646682331 0.0 -2.6999381454888334
-1.6216337511236123 0.0 -4.12152242311031
0.7390085989656847 0.0 -0.5560336533303483
-0.2714203741597334 0.0 -0.5054620921619906
1.7908568683009403 0.0 -2.5965655344481666
0.19151264243367327 0.0 -4.4022328475821135
1.8779532946597648 0.0 -3.4229651795686467
-0.2967521683153058 0.0 -3.048605480620604
-0.6664319557631866 0.0 -5.211062762425329
-0.35224259833574045 0.0 -2.2916580632644385
-1.072553529718674 0.0 -1.9766461368597783
2.1981169777709404 0.0 -3.1743306410566965
1.9645828975923392 0.0 -4.899945176892785
0.5649839929332137 0.0 -0.6989428026802855
-2.427129258811364 0.0 -2.3947168235097402
-2.330875611957564 0.0 -2.0355066551677905
1.155820324167844 0.0 -2.9033989206915924
-1.8080647755944428 0.0 -3.337648922159153
1.1946195332349872 0.0 -4.987018641309311
1.5531696989262205 0.0 -1.9947805356649226
-1.3894665887197406 0.0 -4.814662395991633
2.0528763246281834 0.0 -1.6295646837296252
1.7498539225478016 0.0 -3.8206116264478647
-2.207904180619246 0.0 -5.02997334554731
-1.792970527670323 0.0 -5.393844591946814
-1.5564723994637486 0.0 -0.8640473357915024
2.246387407586231 0.0 -2.4280391103924654
1.6434720160190963 0.0 -4.418190794652043
1.3287788412137163 0.0 -2.653981929977322
1.2731643005750888 0.0 -2.1386904601449115
1.1604669628527113 0.0 -2.3548094603254075
0.6450120532458987 0.0 -0.938142707982748
-1.6066797278303762 0.0 -2.5399786938662867
1.3634017309705997 0.0 -0.928529145524708
1.0922299063223821 0.0 -3.560786678573295
0.188229810175089 0.0 -4.78008779129777
0.14740287006695496 0.0 -1.3932646602940695
0.021738525663326236 0.0 -2.182831970293192
1.434136853669059 0.0 -4.14664512247107
-1.6655892415917677 0.0 -4.653299509277746
2.3458618573156906 0.0 -2.103927940427946
0.5960677602243143 0.0 -5.008562083143962
2.0708785431655086 0.0 -2.5790280766124623
-1.7446401057276628 0.0 -3.959428503415527
-1.7740167888642788 0.0 -2.9396499401083216
0.27482883643806666 0.0 -4.353978256899493
0.11183610641501573 0.0 -3.330670014272489
0.8384750619284462 0.0 -4.28418017390176
-0.8686918532902332 0.0 -3.543197962005288
-1.753684597592628 0.0 -4.440872992625515
-1.3964150461494125 0.0 -1.4617099223587848
1.7319324664636824 0.0 -3.2086124509595573
1.3949852140022925 0.0 -1.5397506348563224
-2.47555545903924 0.0 -3.5999238278732606
-1.6235972193448327 0.0 -3.639012139448263
-1.237635023776709 0.0 -4.512707268940778
1.8863728625459206 0.0 -1.3314105783889314
1.0068818411487963 0.0 -1.7719832759121088
1.2287680574855204 0.0 -4.403812256894756
0.7498493452843098 0.0 -2.81479418037122
-1.4503125795895822 0.0 -0.690148159530942
-0.44753928451515446 0.0 -2.1230389263265854
2.180806977397488 0.0 -4.840030921239885
-0.01857879053435063 0.0 -0.867886862876218
0.6983374922548808 0.0 -2.843524190976531
2.0609006859202497 0.0 -3.8596828403423813
-1.0827995783569266 0.0 -1.5535672116622856
-0.18049690196215273 0.0 -4.742052697576382
-1.779957746712097 0.0 -3.0199179240711644
0.8908217018814053 0.0 -3.475759651435208
-1.1405014532217765 0.0 -4.630764907679842
0.8296067489508281 0.0 -2.2080572686972766
0.1819165665230309 0.0 -2.120704902538655
-1.6914985173112713 0.0 -3.2158947251321948
-0.2734628367159626 0.0 -3.203355293476124
0.7364800276414947 0.0 -4.686238680145748
1.4331044430029678 0.0 -2.05844307356914
1.4605649621335237 0.0 -4.101184492175606
1.594513444609655 0.0 -4.161353227196145
2.349371165683941 0.0 -3.446586498554683
-0.5456283071190042 0.0 -5.1176550960437455
0.8349158107643762 0.0 -2.881735800514417
1.4659881026587347 0.0 -0.9111213305903334
-0.7888871395987651 0.0 -5.206643074848685
-1.1847835156670572 0.0 -2.2910108058294947
-2.346791110775891 0.0 -0.9470622202835184
0.7235066816277049 0.0 -4.512693118930015
2.154617139159212 0.0 -0.9134993143995045
2.2278743416750126 0.0 -4.692671177524254
-1.6751952884410837 0.0 -2.976848530799516
-2.1811051990151933 0.0 -1.0936527438019645
1.0263463450523709 0.0 -0.9728517490575719
2.105119766244518 0.0 -4.123253289370936
0.49967382104113556 0.0 -1.055240601166341
-1.378364259354542 0.0 -3.626795473822484
1.28414041250827 0.0 -2.8800435058230462
1.4803350164929578 0.0 -4.630542940088954
2.102196001146827 0.0 -3.856158939672299
-0.9338932622663472 0.0 -4.234741600516586
2.049604609139058 0.0 -2.913300929542051
-1.9972130934178667 0.0 -4.146844231394375
-1.3198330171003692 0.0 -5.358351660578448
-1.1443985762204612 0.0 -3.1379668875898474
-2.4748792552958525 0.0 -1.7772218614274298
2.1563495396556895 0.0 -3.405934599329017
-1.9511589813678305 0.0 -5.300444806606846
-0.9329467519133798 0.0 -4.066986796271186
1.8981496526028527 0.0 -3.073512922683924
-2.0773697365415917 0.0 -0.563833265760131
2.018715620600261 0.0 -1.4322979108522178
-1.151246633753959 0.0 -1.3211852839798013
1.1144983733182467 0.0 -0.8102028204067722
1.1352829975233631 0.0 -4.786779781214593
-1.5096335629120894 0.0 -5.0354776821857765
-0.2588599199201864 0.0 -1.4563938241762955
-1.4670262296455787 0.0 -1.9634754953434252
1.776977692159459 0.0 -2.736799692283959
1.8559067268906917 0.0 -2.115703610686958
-1.0302876669934107 0.0 -2.1323647900122062
-1.811501644779805 0.0 -5.23581345023897
2.0293053019169314 0.0 -3.2104389908968765
1.2722878899370889 0.0 -3.5274714505404465
1.222774480984667 0.0 -2.8282787113377514
0.6700985507433495 0.0 -0.9574734161411866
0.06623000635767617 0.0 -3.500943215227074
1.9009166575443377 0.0 -4.807469420785391
0.18231615602425544 0.0 -1.6970341858740943
-1.5535337853424251 0.0 -4.715161318499778
1.2770210984468022 0.0 -1.623109862497218
-1.4028035023572105 0.0 -3.203123464271177
-0.11316060796207328 0.0 -3.7774646083798986
-0.4259406362791749 0.0 -0.9585080365888237
1.405417398846632 0.0 -2.7005971370798196
2.3666698127329306 0.0 -4.795004355482671
1.6882961586581002 0.0 -1.774115209772467
-1.162266244597709 0.0 -5.226021009178366
0.9508817395445797 0.0 -3.017567533603598
1.3953172363055732 0.0 -4.716987315582893
-0.10718798507026328 0.0 -2.2660994967080264
2.492697090739271 0.0 -2.41529285045769
0.30645130086081185 0.0 -5.240663347786644
1.0661479720621143 0.0 -1.608498288136997
-1.0316528997604708 0.0 -4.650544784782293
-1.4767437490758932 0.0 -3.616067538946669
0.619803476383614 0.0 -1.1330757799274158
1.303299030690475 0.0 -5.181750154250703
-2.1082366442540024 0.0 -5.461297201105285
1.1494744494124327 0.0 -3.517401533345721
0.7577219047117483 0.0 -4.894134507438822
0.6131233816240607 0.0 -2.437776853143604
0.4424658108780837 0.0 -3.188652440199087
0.17761454427939594 0.0 -0.6135934956781934
-0.591372615311085 0.0 -2.610159535676808
-2.2824082361607045 0.0 -5.499086721362187
0.6346923475921509 0.0 -2.366282517857253
0.6220709355066578 0.0 -3.8705086917644356
-2.0163682563349896 0.0 -3.829947392967446
0.7150610823764438 0.0 -3.4356358004452687
1.0487547872844418 0.0 -3.1726286754733692
-0.5422357159962172 0.0 -3.2682956287649256
-1.6830627216477034 0.0 -2.2550278307303087
1.840875139818924 0.0 -1.6406837136500494
2.1259472104492607 0.0 -2.0152341850098017
0.09002410261598204 0.0 -4.125416665265648
0.0511887855500448 0.0 -2.2864579119889337
-2.4976140385514354 0.0 -0.7280479503300734
-1.564519514400613 0.0 -5.39486133513834
1.0674531750495468 0.0 -1.173921730828659
-1.8100294743018586 0.0 -3.073232066494797
1.8418115313801762 0.0 -2.588721037251968
-0.585708740274073 0.0 -5.039590230580472
-1.7279052106775628 0.0 -2.3232665921079585
-1.5221496246951582 0.0 -4.458193662527423
-0.4550416017274883 0.0 -4.339197763034657
-1.0357077691997558 0.0 -5.161201646469857
0.646547604757929 0.0 -1.6190746801772757
1.322781777330091 0.0 -4.342941304103689
-0.16633857533664687 0.0 -4.685372613974358
0.914955385798863 0.0 -5.458351388035265
1.6858929393353925 0.0 -3.0756290976059386
1.2649952533269815 0.0 -4.410769064819565
-2.036193791638742 0.0 -4.920521674915349
-0.8915733718912955 0.0 -3.3992998157997962
0.12743475575216712 0.0 -4.049644414344745
-0.8524318373822855 0.0 -0.855791580947872
-1.5091652226339525 0.0 -5.391452562094533
1.5190126084618223 0.0 -5.440595908809453
-0.5369467726666115 0.0 -3.3350574119985454
-1.9827759461326033 0.0 -4.794889682720535
0.4874234882502062 0.0 -5.119428115619542
0.1950627181298752 0.0 -1.2089966465692807
-1.0300301090003443 0.0 -0.6025364592589941
1.5251743435476248 0.0 -5.1047903250574915
-0.6208217901293323 0.0 -4.482705995996556
2.0992461126038453 0.0 -3.269651726040503
1.5061509737214838 0.0 -1.8723530098638843
-1.06341567731002 0.0 -4.8116100558174635
1.5423126111497192 0.0 -2.753491372935183
-0.8691177765813678 0.0 -1.1325209123127191
-0.287899731914671 0.0 -3.7905381209019517
1.9597101395580925 0.0 -4.296672961257191
1.0787904649403868 0.0 -5.296039216003265
-1.765621929671154 0.0 -2.180783170125111
-0.42547627923794096 0.0 -3.7507462669603693
-1.767324876674194 0.0 -1.1326472330608475
1.0176877512122129 0.0 -2.887496744545497
-1.329269663610655 0.0 -0.8994976847522738
0.4649006950948982 0.0 -2.660724737836954
0.23132847127970768 0.0 -5.31191137105519
1.674349169463559 0.0 -1.6195767481864771
1.3322605365836426 0.0 -5.2025721046235915
2.1074142283971273 0.0 -5.00239991480271
2.390166705382219 0.0 -5.059601971947338
1.2867394455129104 0.0 -2.433541187312053
1.8977643194511913 0.0 -3.601674033979241
1.0327545943132863 0.0 -1.6560081676398726
-1.2120956261553328 0.0 -2.277801788817623
0.799411403297718 0.0 -5.497218977036139
-1.0385129723941 0.0 -2.3652564814884127
0.2653772471023701 0.0 -1.0773593910477857
0.46319703919771005 0.0 -3.8363841637604477
0.8841052211340843 0.0 -1.3969336910885364
-2.048424347420406 0.0 -3.626565788354529
-1.2127689769690864 0.0 -2.7739131350884527
-1.3436824417726523 0.0 -2.0345063386867777
0.9271522177109497 0.0 -4.816731631619678
0.13190736238725753 0.0 -5.140297527548356
-2.454053689178241 0.0 -2.5427377902419264
-1.1379935024347771 0.0 -5.016257339653796
-0.23736001610373192 0.0 -1.6547660596259206
2.1787273654129127 0.0 -4.5120802472134685
0.3187107905198374 0.0 -4.138564599189467
2.183054079992182 0.0 -1.7534750427796295
1.7732664008916146 0.0 -4.361974857669252
-1.5545093257933429 0.0 -1.256095616376121
1.016302623397547 0.0 -2.1487973576821617
2.0494409579024584 0.0 -2.4326172042151506
0.06610031797815985 0.0 -5.293219566891265
1.8849906659429498 0.0 -5.413786822719873
-1.4722095423652353 0.0 -4.4248284940483575
-2.4733896061942535 0.0 -4.564807531665852
-0.30162957086387276 0.0 -0.7374644476166745
-1.0026000367359673 0.0 -3.3097608270951175
2.012560868203285 0.0 -5.07906028287333
-0.0922569767666479 0.0 -0.9625026796911049
0.6665890486037802 0.0 -1.7503190379712024
1.7962312404454046 0.0 -5.386651499768862
-1.7644410517436016 0.0 -3.425846013873664
1.7244270243001036 0.0 -1.6742712406715046
-2.2200163404599365 0.0 -0.5399008620028605
-1.9031855472379404 0.0 -2.0281829788520085
1.468773952449534 0.0 -1.6194224752994613
-0.7449355476153807 0.0 -1.8968221867487096
-0.18655256735856485 0.0 -1.154115113595358
1.3479819619954747 0.0 -4.0517079660440025
-1.4957867879392954 0.0 -4.974371874023659
1.2169562234298898 0.0 -3.416576889305726
1.0112614186596254 0.0 -4.247775237104367
0.36859844939578457 0.0 -1.3232456025576305
0.9815826618471761 0.0 -1.73117106142956
-1.2704199294523655 0.0 -3.059086005588801
1.1974697024673473 0.0 -2.849895132479642
0.945751817445164 0.0 -2.8040805459795326
-0.9887760171861952 0.0 -5.104137145132057
1.5299606184038925 0.0 -2.9054021819509104
-1.7083790647463493 0.0 -5.367558117313129
-0.6896522638767744 0.0 -2.9297835432773796
-0.4528070008092433 0.0 -4.949017468025026
0.8335465217134064 0.0 -5.202125024805501
0.45503308245636154 0.0 -0.7650061428604618
-0.09608921239541068 0.0 -4.300357450238073
1.251824478017693 0.0 -2.692882812933373
-2.014496545492886 0.0 -5.177889664989561
0.9282586272717723 0.0 -1.7612854877125974
-0.9248818163083432 0.0 -5.368469990159961
2.1270058460150763 0.0 -4.92382676161704
0.6897744464099702 0.0 -2.4509383919286205
-1.621768151596824 0.0 -1.9855833093147446
1.868412405226609 0.0 -1.3670258789503862
0.20798199975684106 0.0 -1.7914657312083415
1.5344660385987936 0.0 -1.6546667530890593
-2.1999599044664313 0.0 -1.3282770869416165
-1.2437702220088898 0.0 -0.5041373811399623
0.9104815739419752 0.0 -3.66767831528383
-0.7102116714806084 0.0 -2.2040503281836132
2.0907228590481317 0.0 -5.252557133089304
-1.1189160013906152 0.0 -3.84396309091094
0.7322364588320829 0.0 -1.9984820076191308
0.6310551203580212 0.0 -4.960242573079592
0.26364119142195896 0.0 -4.812122682099114
-0.5898839611868163 0.0 -1.6318605692504118
-0.08150279724919418 0.0 -1.8464474962376327
-1.2807454607560071 0.0 -4.499744855322041
-0.5520675032616307 0.0 -4.265926110788516
-0.5995859712355371 0.0 -3.992189464294192
-0.3857551131310495 0.0 -5.08456779181024
-0.5160596092415282 0.0 -2.7688820098991034
-0.1403615682957957 0.0 -0.8132313964523528
-1.6341579058445699 0.0 -1.7998424798429031
1.4434532062466903 0.0 -4.856439897941276
0.9326830663229071 0.0 -2.400796551173694
-1.0834541426068904 0.0 -3.3318239099875715
-2.3792012442000505 0.0 -0.6303463020777169
0.4406173156206563 0.0 -3.591751081287007
-2.0097705438553177 0.0 -1.7351811850718293
-2.270611234541608 0.0 -4.22353715428098
-1.5058527942693134 0.0 -2.155359535150697
-0.07263777601771526 0.0 -4.754400408767671
1.1710229511757655 0.0 -5.099729727054816
-1.465720550888574 0.0 -2.4204153406567337
2.3482794608953315 0.0 -2.0416442592743556
0.5075792889063289 0.0 -2.6663704404548403
-0.8346749736919161 0.0 -2.5745795603870985
-0.4646448429870076 0.0 -5.37133365467936
-1.6061304958464357 0.0 -2.6581494965925474
-1.2516602668079424 0.0 -1.9501248683750085
0.2900373767126978 0.0 -2.478755617287216
-0.6853657644377775 0.0 -1.7798031754163053
-2.39109724293039 0.0 -0.5406658246060028
-2.413232144188886 0.0 -4.528918363215033
-1.112871165667083 0.0 -2.6036605630251133
0.9593177769860475 0.0 -1.766438736643158
-0.03536918286751334 0.0 -2.3038539617806344
-0.3687723767918567 0.0 -2.0775438696447126
1.98008116380847 0.0 -4.456421794545404
-0.7571658723836372 0.0 -2.627138482842107
-2.0027103418713716 0.0 -3.050546529458539
2.262812154642675 0.0 -0.7836315613582503
2.3146634667394475 0.0 -1.7540299195191897
2.343391701439889 0.0 -4.792626526226201
1.0277640217496287 0.0 -3.330242849279581
-1.4551974314636378 0.0 -2.762459316712422
-1.5862220386062276 0.0 -2.5781277313250435
2.431799782288328 0.0 -4.810881981470557
-0.5772636052159235 0.0 -1.7008336047055561
-1.5138982679091622 0.0 -2.4772222617653745
1.77871335716463 0.0 -4.935584642332941
1.4436587476488483 0.0 -1.626532579372733
-1.998907276183567 0.0 -3.56597187611138
-1.1932655966652912 0.0 -0.7911157055111326
2.364432156791664 0.0 -2.8541292598419
1.4882626235732657 0.0 -3.5164296004016484
0.39240968039012003 0.0 -1.3136761512046435
1.66252484114655 0.0 -4.153533203345899
-1.3457631968840928 0.0 -3.7307698961522076
-0.44919680708152754 0.0 -1.8302275609183072
0.8536471755421844 0.0 -2.949250806629295
0.899285209228728 0.0 -4.2763168091293675
2.1397691647760775 0.0 -2.6552119831606156
0.5382437910244899 0.0 -1.8595957178225477
-2.258429804234281 0.0 -5.293809366638086
-0.9690722972788097 0.0 -1.449204819103774
-1.9066485429873303 0.0 -4.9979023064643044
1.772577311081128 0.0 -1.5787893637359938
1.2318933373189713 0.0 -3.44674460598039
0.032131415295238774 0.0 -4.824205500192959
-1.4402248160179787 0.0 -0.8770714698835009
-0.23427266717524287 0.0 -1.3636828613124328
-1.845136822426272 0.0 -3.3095636620545674
0.17526398202552818 0.0 -2.1704857032875053
-0.9256917180478315 0.0 -0.6503026726003442
1.9673259482551213 0.0 -1.027223400977955
-2.265379350407753 0.0 -2.3517896498392137
-1.6300902141794653 0.0 -2.4434448031008493
1.7329860468933092 0.0 -1.199787338437373
0.5575792659912331 0.0 -2.0747318902546925
1.309137974683182 0.0 -3.973967650469425
2.4483568461738336 0.0 -3.804947868240125
-1.4384536076006282 0.0 -3.1179138651777056
0.2673593594909711 0.0 -1.049735355902162
1.2866456788415546 0.0 -3.1924274998318105
-1.2725721732738688 0.0 -2.7286323782732302
-0.8446643737884081 0.0 -1.0131506662812164
2.281967184192527 0.0 -5.495769002273008
-1.9568482084903032 0.0 -1.59703967236827
2.2696210134535555 0.0 -3.4394731922200985
-2.35146946621101 0.0 -0.9280672615306571
-0.8658941607320041 0.0 -3.8301679945658638
-1.1223858171174088 0.0 -3.707312232489405
-1.8863759628920147 0.0 -4.582717277630502
0.2759279455130659 0.0 -4.163765783326336
0.37855552261285075 0.0 -2.267360281900961
-1.1628995717643853 0.0 -1.8865311434208003
2.0139715683487243 0.0 -2.705887964403206
-1.932464349293776 0.0 -1.1133809692662826
-2.3600917655206777 0.0 -4.350046345556971
0.7038492693213905 0.0 -3.4670259474707095
-2.0663395271016722 0.0 -2.8008031294003284
0.7419908326073776 0.0 -1.596289102283397
1.9135845404095662 0.0 -3.1596391897332006
-0.6322632059162259 0.0 -2.2259965642629798
-0.05170038880494099 0.0 -2.7410877253998307
1.6622582938547268 0.0 -1.6632214353870478
0.8587169787275091 0.0 -1.3378660635040465
0.7763645046377183 0.0 -5.092239729942972
-1.378508274947794 0.0 -2.940913613550041
0.7635261487194658 0.0 -1.6811869222783944
2.4291945401787 0.0 -5.2059775253649825
1.4903809315910879 0.0 -4.625689159613828
-1.3684252340079006 0.0 -4.417524235421407
-2.113032744797886 0.0 -3.9308670099545098
0.8514561865036758 0.0 -3.8242886040900608
-1.0089842740264139 0.0 -1.370502222382198
-0.07378264854663863 0.0 -2.4913865347860944
-2.179541783728171 0.0 -2.416650700756983
-2.2328532904502216 0.0 -0.6234342448620831
-1.265397309010929 0.0 -3.9804075377442576
1.9341037425348997 0.0 -5.318436710406224
-2.153755752160771 0.0 -2.850623998591461
-0.5130382117401466 0.0 -4.733944175877281
1.1322417825996416 0.0 -1.1850683337469867
1.6060090242739138 0.0 -2.4676603828250228
-1.049758558708107 0.0 -1.8829323494135042
1.8402614739903314 0.0 -3.940696467353261
0.13924881356331564 0.0 -4.014759882149587
-2.106538345161092 0.0 -3.27325723476035
-1.258531900622869 0.0 -2.6918256322589547
-0.5058362897060671 0.0 -4.280333591518765
1.9888647911253452 0.0 -5.347632452376827
1.1270118518394194 0.0 -2.507774298742545
-2.038148150491078 0.0 -4.417850430769909
0.08402656777193318 0.0 -4.651065643470267
0.08241355280618734 0.0 -5.176366600261476
1.4194291295103834 0.0 -1.2402997309029322
-2.032257802353148 0.0 -5.366867028521379
0.158397993389372 0.0 -3.719742841681285
0.3546524332625993 0.0 -3.2603699911295605
1.0520591136645656 0.0 -5.48365799940549
0.5381075609119219 0.0 -0.8437198765789349
0.23218740415550698 0.0 -4.7674176466996565
-0.8754423088716972 0.0 -5.116327611526373
-0.015581258660782638 0.0 -3.4195240754813545
1.4154039655482031 0.0 -0.8907697896010545
-1.4850981758021469 0.0 -5.483653928783173
2.397137261748864 0.0 -0.8817706433671182
2.12916467837026 0.0 -3.533210873517351
-2.2238495296631706 0.0 -1.282235604359606
0.07274538996236313 0.0 -3.182492481485021
-2.437355830332939 0.0 -4.999881893043059
-0.39763783473545855 0.0 -1.3054978833647617
0.5643448956366743 0.0 -1.8989180799768675
-0.6888710813209942 0.0 -2.385978630880637
-1.599829165088607 0.0 -2.298887704505012
0.36191403976444203 0.0 -2.174965004043172
0.09552946648480987 0.0 -2.3540065878569627
-0.5437710323765821 0.0 -4.87849172029251
1.56258137965371 0.0 -3.2674847355856826
-0.548216649687288 0.0 -1.9438060891913285
1.2182961800070284 0.0 -2.857300645537456
1.6924602230997383 0.0 -4.78474115595149
-2.2554581947414434 0.0 -4.704798409920488
1.8673036026037284 0.0 -3.891642691655594
0.49197764928454557 0.0 -5.382978935219964
-0.7754245885197304 0.0 -5.485750311109353
1.1479717081298872 0.0 -5.405784318658956
-0.03362295674522553 0.0 -1.0515757766292575
1.6495183882927202 0.0 -5.332781036050321
1.8661367620185132 0.0 -1.8022282234364475
-1.5280515466916107 0.0 -3.3325210846344624
-1.4159372250445224 0.0 -2.8542335314847787
0.13727291530600594 0.0 -0.9565063491977259
-1.112232250400376 0.0 -3.8437660821950423
1.944016150288629 0.0 -3.65808109762965
1.221851790514238 0.0 -3.5438721359252288
0.3813263100521267 0.0 -4.308640124582548
0.4328916383800885 0.0 -2.5495202241935044
2.168587828099609 0.0 -5.384375673767421
-2.1257580528442426 0.0 -0.8165482741486629
1.043848917910652 0.0 -1.5828046871905652
1.2669297726976843 0.0 -2.5293213130562373
-2.404994514251642 0.0 -4.065024420443173
-1.6795307517186697 0.0 -2.7481771081386652
0.1725747803904829 0.0 -2.1894999915293534
-0.20667826975951042 0.0 -5.2066671622282845
1.807354280777342 2.8022246767690198 0.0
2.04945237292397 4.682588638904642 0.0
-0.4006722986551826 1.3950012188828338 0.0
2.216553225520997 5.38088848616366 0.0
1.7480206194077317 2.8526879528025284 0.0
3.9327583238899866 3.537834276698555 0.0
4.213931929274716 4.486480258273696 0.0
4.25609108902082 1.488691406965746 0.0
4.073975579175887 3.4226579439502083 0.0
4.049278130414192 2.7612508295923877 0.0
3.6022306560268866 0.9385103014861197 0.0
0.64480179250946 4.772239778685204 0.0
0.6130585484710531 1.1504432232718271 0.0
3.2487518112560854 0.986570148096161 0.0
0.5111526505103396 3.166301745740771 0.0
2.6070332547903545 1.1748483583199183 0.0
0.1882979484257712 2.1588672864581024 0.0
1.7314090411574923 3.3252824242614127 0.0
-0.28572069517706533 4.907955243432581 0.0
0.6688279189208255 2.0703174224713043 0.0
3.0729412241508323 3.5026577683990436 0.0
3.731932776015852 2.903216239840365 0.0
4.007941189017252 4.370509203714396 0.0
2.844663684754503 3.0394980492855423 0.0
0.14256530439890158 4.065959336405699 0.0
1.4254476560046219 0.9525253276579955 0.0
1.808962180686804 4.48634489309748 0.0
2.2161847063634155 5.467335401645237 0.0
3.5278526896878315 4.56009171394507 0.0
-0.10763501362503769 4.275066210898099 0.0
3.4887120890045216 3.6294379473554184 0.0
2.644717667374083 0.636707324630923 0.0
-0.4928941723498821 5.209466867597766 0.0
0.06751852230752686 0.6058749048752483 0.0
2.3676736005339736 4.8054389928990275 0.0
3.3998057105798334 1.9324146901167445 0.0
1.6963434451153208 4.077096082723961 0.0
0.4259494315603334 3.1259076115003404 0.0
0.3565579942659707 4.007361099002431 0.0
1.2756149978276925 0.5757536097641104 0.0
3.711333364000059 2.4899331980164514 0.0
2.5487126424345834 4.440056358165211 0.0
4.4256111801238776 4.005667814922761 0.0
-0.39115131223944954 3.4224590620705686 0.0
3.533331010729845 1.9650807988333465 0.0
3.1974173925259723 1.1411523926756901 0.0
4.465432042215307 3.4984539222921103 0.0
1.3895907298131327 2.282878653066854 0.0
2.6174681039663272 3.771527707882707 0.0
-0.009656052783917457 3.418189370040964 0.0
4.182820053733377 4.06892126180294 0.0
3.6664286375957875 3.6694671294088965 0.0
2.0170705644515152 3.8821325223939622 0.0
-0.4374087030325442 1.7695395609857796 0.0
3.6198954521217033 2.5951169935827374 0.0
0.9843699865256932 1.5918702107677585 0.0
4.041068103333365 3.0323723768272983 0.0
0.4346528470954324 1.3762969289797722 0.0
2.8852155741976704 5.104681416764463 0.0
1.6764161126023178 2.697042215698736 0.0
4.389357248202791 2.8987303081251077 0.0
2.1712291575055462 5.144300325225398 0.0
2.2278698407314934 1.7457440093168193 0.0
2.019361314670867 1.0906168134113254 0.0
3.818654229525131 2.554945563247665 0.0
4.284508012641017 5.406605856464798 0.0
2.7210882197024326 0.6855493635806388 0.0
0.17188766872362915 3.3644568135785846 0.0
0.4270203367781521 1.1217155307251137 0.0
2.945738714748843 3.7939532182636757 0.0
4.130399450298463 1.2306349527154126 0.0
2.849351934106455 3.8484919915296416 0.0
1.3112852034822797 1.7855328490481215 0.0
0.23116349469972863 2.290898183846484 0.0
1.9880635505778885 4.998675147370612 0.0
0.882684020927264 3.495051091242298 0.0
0.2971547400094664 1.9192863645925924 0.0
1.4330350377353955 1.542060212103204 0.0
0.9930137072260741 0.8405888027386378 0.0
3.798464385457554 1.1700157216544533 0.0
2.394396123555204 3.8750960531132446 0.0
4.389965759538487 1.8714831748054424 0.0
3.2091555995975862 1.1469030687418869 0.0
4.361896648454068 5.351695225488603 0.0
2.388308063088962 1.2116368164746667 0.0
3.397226373518757 2.771299489476695 0.0
3.392932282642903 4.522743659155422 0.0
-0.1839551502508392 1.8198761136259503 0.0
4.018964233515904 0.7825481329324286 0.0
4.433515311074425 3.2777145484631136 0.0
1.1350958428540185 4.768694020622629 0.0
1.7818469999557096 1.996477693267364 0.0
0.3987912648040203 4.501536326001024 0.0
3.0132266827330003 2.442156467271257 0.0
3.8839555215497725 5.1745661139576855 0.0
4.38930380599701 0.8466359713292805 0.0
-0.44861979036660626 3.900265814900134 0.0
1.9452374515474151 2.449422244191296 0.0
4.4398221961744975 5.3335666280013765 0.0
4.030161977551604 3.392482230245792 0.0
0.9579985985408517 3.503298229224149 0.0
0.6021964728010252 0.9075841784914014 0.0
2.264206074207132 1.399662518110949 0.0
1.0352004603630016 5.424903353341906 0.0
3.4408395398534157 2.1283965306332933 0.0
1.083564405738065 2.579613417922373 0.0
-0.03489663836010304 3.8181032032774613 0.0
2.7007896436983785 4.018538665676343 0.0
2.7324692478677437 3.865439650691689 0.0
1.8930268567660713 4.19950573787106 0.0
1.1238634234214144 4.843561180327866 0.0
2.700586326509822 1.302223666111153 0.0
0.4288147928378937 3.648356282923807 0.0
1.6521990274513882 5.468238599507803 0.0
3.5286407141035694 0.8597303389851542 0.0
0.24548875684002314 4.033220460019129 0.0
2.1681055082692966 2.669541856244297 0.0
0.5129369596568867 5.08531455674908 0.0
0.5276332648969699 0.5078922664694636 0.0
-0.09313678904275824 1.058634183622868 0.0
2.8563130883869663 4.132432554637463 0.0
1.0591961405211996 2.6197602062322614 0.0
1.0874282445923371 2.3766653293347577 0.0
3.161661264959796 4.599690612071351 0.0
2.9354120995408453 1.5512501844660123 0.0
3.819619923816579 5.297679753064196 0.0
2.2108259087822617 2.5054871864663193 0.0
3.6724731189824507 3.9014858955294507 0.0
2.764566827529195 5.317395262592646 0.0
3.285207482318226 2.5320705975639552 0.0
-0.4260732396184437 0.918905525010223 0.0
4.261491074047507 1.7806274287853048 0.0
1.6606590719597736 2.942617356017961 0.0
0.19661002111573112 2.7311246999661556 0.0
0.033145097196633944 4.700033242480723 0.0
0.31331866423719756 4.028205266533954 0.0
-0.10141866653400011 1.6736564714740183 0.0
3.769860941528056 0.7092796210409964 0.0
4.067553713402682 2.6116020608238504 0.0
2.254686327872636 4.80268537721533 0.0
0.23146991271459183 4.712525586997765 0.0
3.457104479145212 2.038805552384192 0.0
0.08221147292480513 1.92806901247645 0.0
-0.09323551156229692 2.809531972065402 0.0
1.13319400372455 3.47517759067984 0.0
1.9212292713556 4.102315574797988 0.0
3.420467487864558 1.3584898963243899 0.0
0.36578319403940285 1.7234391058825707 0.0
3.424850101821909 0.8431796563946443 0.0
2.476325677485974 3.982242811210204 0.0
2.056904460609992 2.873255679467915 0.0
1.6398545214317384 0.75464499543844 0.0
3.9422551288645282 1.0962377373305383 0.0
1.0506497913472423 2.1765763535568534 0.0
2.7637946057136693 1.8525814341790028 0.0
0.19093689689005755 2.3337008851571115 0.0
3.284988991825461 5.450135728072018 0.0
-0.18553777805925165 2.3162774619301647 0.0
3.846474328288773 2.2181493425377328 0.0
0.9987947557261778 2.785007811405758 0.0
1.6666158828064468 1.1539499268401556 0.0
1.4791764819933095 4.841668652851815 0.0
1.994893430514367 2.2102951124342254 0.0
3.962360433156584 2.818471395615292 0.0
4.041231354999536 3.316879358432116 0.0
4.162815887954669 2.462444420147081 0.0
0.5248993615437856 4.209765981203702 0.0
2.8518456906441276 5.209603388474097 0.0
0.5265192850958837 4.207020376305068 0.0
0.14833773682709261 4.494027460524663 0.0
2.2017597833411315 3.070135131183312 0.0
4.195549577464661 2.8491042361065615 0.0
3.48650541916089 1.8519534124799466 0.0
1.6603776679554425 2.5922357330521972 0.0
3.8109825228505567 0.9025866818460477 0.0
-0.07251302565371442 1.5829319925048169 0.0
-0.2368191426671108 5.056202061721189 0.0
0.36519256806374956 4.756938119554829 0.0
1.6055531060332284 2.0418812184376836 0.0
-0.49513426150767104 2.548798654574824 0.0
0.9552454094216731 2.6367715878959843 0.0
3.6129853648217933 4.194024932134347 0.0
3.433654415486602 0.8626950096633935 0.0
0.17318740289804502 5.420110042157407 0.0
3.118490220280077 3.0132062854014388 0.0
2.6890029123751447 4.742236876945704 0.0
3.4848769973503213 5.413950361797495 0.0
0.7499878933964488 2.722900822146554 0.0
2.6709902121614646 0.5296947978999512 0.0
2.964104282833749 0.6854355749647679 0.0
-0.10782896189308067 4.766068769972363 0.0
2.6964975355194944 2.9064036857577094 0.0
-0.21845654118900115 2.0946186745841766 0.0
1.164515288273503 2.0389285818590936 0.0
0.5155659774066588 0.9329289821428289 0.0
4.092194744975126 1.8755813374474042 0.0
0.9723814492973846 1.3487513106308047 0.0
2.4081690942229454 1.8348336434159902 0.0
0.4035038299886289 1.145008747369646 0.0
3.844786655706158 5.046129676032085 0.0
3.4870472051816463 3.285572056022985 0.0
-0.39925322204995406 3.2732691363156574 0.0
0.01734169997759094 3.331942885048999 0.0
3.913390818313939 3.472432675015973 0.0
0.49373752672653415 2.267826655818573 0.0
0.005812739662609423 0.8005851364458506 0.0
3.7289544900142513 4.71099219523098 0.0
3.412594641144869 2.8912011413308925 0.0
1.2692374635354857 3.2369642596745383 0.0
1.500186374040251 1.3141687914117468 0.0
1.5069070922850325 4.412771802070976 0.0
4.097154937761622 0.7085120616340363 0.0
1.3678166766933968 4.966408417845935 0.0
4.151774626258669 1.7952749495312017 0.0
3.0771435704608563 4.178218062237288 0.0
3.4090968529652264 1.094267926495828 0.0
1.9847138548179029 3.6678962261846384 0.0
3.90127974533857 2.389854547615874 0.0
0.6292585324344722 4.848186680078431 0.0
2.484356906227915 3.390220102948196 0.0
-0.2504016155488793 5.091859461073071 0.0
3.2694491099840044 5.24466520198688 0.0
4.445634416452592 3.0618391886784186 0.0
-0.219369875043965 4.554109147173972 0.0
4.069470647974459 2.8231452853048467 0.0
0.3369562235240735 3.7929920721705286 0.0
-0.0391234979277173 1.782484709245234 0.0
1.3980767118945447 3.17366230344436 0.0
2.139802985087734 1.9891910620119853 0.0
2.6170857959324714 0.9904782699978893 0.0
0.9600784777683402 3.8551815128835463 0.0
4.352214817857878 2.0895996755082713 0.0
2.9512089420329457 4.925696407174715 0.0
3.7136863162195404 5.240009894163684 0.0
1.7670472623176168 1.6032793964149317 0.0
1.5633978620007247 1.604244632038784 0.0
-0.36428379858981574 1.2883904450985768 0.0
1.641226973435184 5.316476445180898 0.0
-0.24134660782939532 4.569334072558882 0.0
4.323686013734101 1.009644530743461 0.0
2.4080068763000675 4.464211733049815 0.0
4.240333697842157 4.080648963689972 0.0
4.310011517072806 4.933309077603365 0.0
3.912751208715356 2.3064562266299813 0.0
3.285453756482041 2.998712340471983 0.0
-0.10295850550947738 3.4475325948635804 0.0
0.353439420954773 1.128717230621868 0.0
4.306054310512313 5.160095941628589 0.0
1.3954923409719409 1.9257785163988979 0.0
1.6793853468758901 3.3296201235532292 0.0
1.0006483186020891 2.9327730495792994 0.0
0.3834364950997209 3.0316748772898796 0.0
0.45626132608892633 4.29091675859439 0.0
0.5978390374528524 0.5581833632326895 0.0
4.385209232463187 2.652269450164406 0.0
3.5790935274102873 5.450640432141623 0.0
3.323681888476198 4.650529810167378 0.0
2.006315992149882 1.9817110955292119 0.0
2.3660365314876617 2.5153559968375707 0.0
2.9335979265791687 3.5316328169355926 0.0
0.7624481456558194 4.992933904909107 0.0
4.032249930352096 1.2506817260705851 0.0
1.7751992509918537 3.6921512065351436 0.0
2.9169336514969273 3.916466339970492 0.0
3.386012854503419 3.991754310984125 0.0
1.0248061902124677 4.893252820484711 0.0
-0.19866066881230782 2.307980499934085 0.0
2.66836085861396 3.6914908736363357 0.0
1.7043203743359516 4.414185502066765 0.0
1.6265548616430339 0.5445982223041225 0.0
1.9069673835546714 1.7232225079915442 0.0
1.1467461028077568 0.7940178420094358 0.0
3.7390776764096447 2.60161187981319 0.0
0.7670377037908631 3.3826034682941803 0.0
0.4067967510124897 2.9623449914672735 0.0
1.506674685995475 4.091186625518084 0.0
3.7060596428320114 1.7371282328686655 0.0
0.12073636881716743 1.7506524424366405 0.0
4.255379183957568 3.770910353892881 0.0
2.3930297157008606 3.9590368162242897 0.0
0.6848052163491545 2.008618337043832 0.0
1.74107245378854 4.932063197871458 0.0
0.050049839521731254 5.163264490302195 0.0
3.130671365155922 3.605600876907345 0.0
2.660264057887105 4.741668000199638 0.0
1.7001222240037368 3.1561985212809898 0.0
1.6215142198755328 1.0192216243866632 0.0
0.12343979629406077 4.430375751661946 0.0
3.2178694214959096 2.73028480070301 0.0
3.384307143263011 2.8935990169760784 0.0
0.8365417664743695 0.7829463675229354 0.0
2.5371774180167965 1.2558911361168719 0.0
3.460030473536297 4.1684193606858395 0.0
3.9788805793077566 2.1516779016240912 0.0
3.5723091529273976 1.065032830010885 0.0
3.459180540114727 0.5666347401185174 0.0
3.1899092776424363 3.0716248868675673 0.0
2.537950432243469 1.7368360476221374 0.0
2.7784772238271866 4.559919182513607 0.0
0.6295884630935409 3.1711685873525512 0.0
3.5849810739077084 2.0000216908412387 0.0
2.336296919184291 2.477731253464354 0.0
0.9879127916614843 5.373175531838553 0.0
0.10837979747550452 1.6333767495258984 0.0
0.1051273798334511 5.066867584039013 0.0
1.8217184714080075 2.2835400719804677 0.0
3.8089663250833548 1.3664263670636778 0.0
2.913656664131765 1.139152067304074 0.0
0.5243025933059979 3.302009606043096 0.0
4.0646859808646365 3.1718052049970713 0.0
0.5519842706958009 1.4640082675106982 0.0
1.462078772680524 3.532064314191288 0.0
-0.08931415816497823 4.559508696892991 0.0
0.8050671499885751 0.7897858611564591 0.0
1.710986724350251 5.2493618704439715 0.0
1.5216105653098704 3.550112144364559 0.0
2.063830651468301 2.2991949605098183 0.0
2.8721471991124217 5.206058142359076 0.0
1.4004749602601763 2.974310487394818 0.0
0.9493255556455305 0.9962713002231772 0.0
1.5357259635671965 1.5757603467165389 0.0
2.4180443205295594 0.6388217655456786 0.0
0.9336549689119438 2.291908335167924 0.0
-0.48144713232856695 3.6244774238437047 0.0
-0.39667732766412234 2.4483906634433557 0.0
0.31189269148193355 0.752573936751832 0.0
1.1381810002399448 4.285733293030615 0.0
2.928916832975979 4.564337453896837 0.0
1.4384166194758057 3.639529117711831 0.0
3.766937301080157 4.307971492394449 0.0
0.027454913481179566 2.5798983374138325 0.0
1.2691559888941333 2.3694210515774943 0.0
4.164615045140747 2.4274821839904366 0.0
3.830015020226548 1.4909474834008951 0.0
2.5842053826647837 3.9745882935629835 0.0
1.957491145778416 3.254146468965244 0.0
1.4060617547716951 1.8998468670595505 0.0
2.036568102925603 2.336579426292369 0.0
3.5720925122466456 3.7017266034904734 0.0
1.4530825227976996 1.421895597048199 0.0
4.260367187708226 4.837711148207665 0.0
0.3318377008955413 2.9788789183944115 0.0
3.469443249255273 3.709156706593488 0.0
0.6591926508394013 2.5465940848686293 0.0
2.5045871666908353 1.2873242165719485 0.0
-0.058368259155614055 2.6029451477878474 0.0
-0.44627698952218253 2.1571299422490675 0.0
1.6587831453330812 4.992054509263067 0.0
0.43679403870204403 5.04724850201128 0.0
2.6850553644245823 3.9433725083644036 0.0
0.9183234620551377 4.858307300844352 0.0
-0.44334122237746754 1.0077347444360902 0.0
0.41454279266520333 4.095149849657681 0.0
0.7340971622513863 3.2317425822448724 0.0
4.116421343593077 4.037347414797973 0.0
-0.2633067977817878 5.230784947427395 0.0
4.408771193389026 4.704602507882501 0.0
2.7565949953044537 1.9393003153385147 0.0
0.7187896819611628 5.318460933970724 0.0
1.1831780639469223 4.021679987375795 0.0
1.217359187101083 0.6782670494650157 0.0
1.9424026846204887 1.5221421615375363 0.0
1.537641188477326 4.730033588423808 0.0
2.780197780744558 2.4328404155937573 0.0
3.743973358898014 1.8604367126616106 0.0
3.7256409726858104 2.2226840276345934 0.0
1.7424662424026516 5.2559223384708655 0.0
1.3981998119754573 4.670316469322558 0.0
-0.15319403642905416 5.333908969932598 0.0
1.5766515282865705 4.506891385235004 0.0
1.79692562517695 3.1456372040648084 0.0
3.1073574184005492 3.6113502391254277 0.0
2.345619410804981 5.203593768359245 0.0
3.5310285088960898 2.096872236522576 0.0
2.5935029073542197 3.1527198004292574 0.0
2.584087305839787 1.8538446082840017 0.0
0.12897449512155312 1.4576858860060977 0.0
3.810270346613107 5.444062854966212 0.0
4.356014252255088 5.127677436560852 0.0
-0.31673804987485465 0.8641510380771784 0.0
0.3120231079052026 4.038118745439048 0.0
2.5177517765939434 3.6172221851726993 0.0
0.8325328401439374 3.011286863480047 0.0
0.4381138903623498 1.1455576609619051 0.0
3.2875547087138823 1.2669261165265062 0.0
4.001819649088544 2.474001101106116 0.0
0.8907324263682015 3.9465750128897144 0.0
0.9635924116903283 3.1642021943946554 0.0
1.4865301883856656 3.9273841988906675 0.0
3.6071095076053608 4.864920512623256 0.0
2.5394544112258486 0.9286514454560159 0.0
-0.030162422305462067 4.114269483188804 0.0
0.5962161415133431 4.117890447576179 0.0
2.139884120918776 2.9163025331691785 0.0
0.9050238199946281 3.322940245967861 0.0
4.013487195240363 2.5775682131647795 0.0
2.5052208183503866 0.6903963731366093 0.0
1.9845385793795192 0.6008982711692602 0.0
0.03325650082988618 4.548168023894082 0.0
1.767213970304895 3.1094725586652032 0.0
-0.13887731557501626 0.7381649572367478 0.0
3.2801902120978275 3.0915292468491975 0.0
3.697696445420495 3.0010322480817484 0.0
3.582801219008677 0.863057322515527 0.0
2.2960029179409323 1.311052020451239 0.0
-0.38598556475215884 5.072127613330702 0.0
1.4194703350248248 4.23047983624005 0.0
2.069496996611369 2.8495303634635425 0.0
1.4473800901316558 4.333815690903535 0.0
2.505525863544793 0.7881950571225195 0.0
0.47173073745591587 0.9166148306691014 0.0
1.2992963242350901 0.6278255382126764 0.0
3.128469157291473 0.545934769932221 0.0
0.6034934127271667 5.201043744052907 0.0
2.6219592521933945 5.123260389291433 0.0
2.40461735583294 1.4738280837913456 0.0
2.5166610629366932 1.1436542798603266 0.0
1.0072905751047028 4.76317602175822 0.0
1.0561694287252925 2.0451471678809146 0.0
3.186698291291744 3.522222503509635 0.0
1.5449969888317931 1.3700593684754314 0.0
3.1500870249511372 1.5489849758869814 0.0
1.0317382942064346 1.9605186991771124 0.0
2.48610599714511 4.646023942884384 0.0
1.1949300271466146 4.241152834172535 0.0
1.160595590416164 1.1077117780564851 0.0
1.9317478607386396 3.952516274795541 0.0
2.4568576316019968 5.04415239275981 0.0
2.891510213981622 2.5281423725719563 0.0
-0.12404264031406387 4.7991014077297365 0.0
1.2671628223510045 1.3934461973297714 0.0
1.378678533362665 4.442776524504242 0.0
4.419065890539119 1.023348443860443 0.0
0.166425161790965 3.642308073814954 0.0
1.6620250049804208 4.900292002649096 0.0
3.0748997316972195 0.9928822839333419 0.0
3.6674793648712587 4.049371764322547 0.0
2.8893470064555435 1.3747946110055742 0.0
0.2805160466151828 3.5018745891482506 0.0
0.0689406652902651 0.6704144390989959 0.0
1.6922811933587343 2.6914306880706103 0.0
0.12020370391273949 2.3292802264551264 0.0
-0.09277568710359407 3.9060355698297275 0.0
1.3575799108715012 4.2151936972291475 0.0
3.7583413226439317 2.4434583232202236 0.0
-0.2036889593641168 5.462429397291487 0.0
1.098176276611008 3.0861886211023233 0.0
1.1040068649849848 3.6098865221598135 0.0
3.6289671264830465 0.9226665626389459 0.0
3.662882456586427 5.107313218451765 0.0
2.830626427836445 4.3302960353583115 0.0
1.3990117881994883 1.4857172273508075 0.0
0.5698136614033427 4.5420061393248705 0.0
0.30437337001038667 2.26998704245928 0.0
1.6153165226263893 0.7668445458125923 0.0
4.343812686125707 1.9464862987925557 0.0
0.458205522801035 1.8242042592068848 0.0
2.521423905720551 4.5868458769970095 0.0
2.040047507584376 2.3453529791663392 0.0
1.4000826554659263 1.547314734049618 0.0
1.359546226300877 2.8510817683602534 0.0
1.0939388143965316 3.855219505009466 0.0
1.740616857696636 2.9911357850751257 0.0
0.7700763293532806 4.79444159951192 0.0
0.7933842492361887 4.467271202012521 0.0
3.9849990342022785 3.0429950790376736 0.0
4.352463719872211 2.129308711644191 0.0
3.8795512271740407 3.495484311056362 0.0
0.8711988016693333 1.667434313863776 0.0
1.328900646253816 3.8886894513733266 0.0
2.2145440397442355 2.697236455605285 0.0
0.5356713893330216 5.0533217711990766 0.0
4.08818798081904 2.061725050873103 0.0
0.6918833122101558 1.9424250773410012 0.0
1.3130651708356367 1.171456211642787 0.0
4.2284582438566005 1.5935923667735596 0.0
2.150844947112309 0.6340104931538832 0.0
4.408402794340939 0.7712831829144047 0.0
1.5867012173809423 3.0151951881686703 0.0
1.594486932202852 5.040618989786385 0.0
1.1988792981367895 1.6377504564388452 0.0
1.736036768842789 1.5179688217298188 0.0
0.03933162054914663 1.881628454761643 0.0
4.2630072735869975 1.605345225816103 0.0
3.080288135309254 1.7498218712378169 0.0
3.3140301936271075 1.5781221332019153 0.0
1.9489978979276765 2.133455956465375 0.0
3.5520680290703517 3.7212608674516896 0.0
0.20806530321994632 5.3838425155978875 0.0
0.6215340911345761 2.499988021172636 0.0
1.0560803134783847 0.5027117723178038 0.0
0.8991310977534466 2.0509079554190457 0.0
4.1783908023742296 3.1570904479544604 0.0
3.6428004178831763 5.1021975447797905 0.0
1.5135376497178834 2.076000478020167 0.0
2.041082784119231 3.274104398882684 0.0
4.494017388269404 1.253757274123683 0.0
1.111723751708503 1.0078032496015834 0.0
3.346594054789232 4.002728135787793 0.0
1.8443148013725872 0.655897165272908 0.0
-0.13748318828931527 4.27253275256551 0.0
1.7321007647495628 1.882964706602472 0.0
0.9356104246004187 1.1196137018481855 0.0
0.22429960899206947 1.8088540690699961 0.0
0.6756847234922811 4.323295545520473 0.0
0.47801974603582975 3.3532885030847948 0.0
4.06757587952611 3.983627183012592 0.0
1.1792894139897951 5.448118562176949 0.0
1.960857417793565 3.6473495650137955 0.0
2.113737832527288 3.695580729186272 0.0
4.461258695470876 1.4611635719416567 0.0
2.9975070077902886 2.7284372177586182 0.0
0.27568147890709316 4.555087231110495 0.0
1.745041246989154 5.013340532382546 0.0
2.8511245747564313 4.837151257412414 0.0
2.986573418528618 5.194209663481748 0.0
4.432832333422357 3.3614507296345897 0.0
0.0056703245583415995 1.1793238597599132 0.0
2.710878034294307 5.187165458794552 0.0
1.3509598138117296 5.460749390104019 0.0
2.0773587460635694 0.7100391366637933 0.0
2.727902593016943 4.686098535115283 0.0
-0.2376804785283605 2.009641095028579 0.0
3.5479807148512217 4.30732912751021 0.0
-0.3267714239936005 4.617977636555834 0.0
3.508800936460762 1.8793392264207294 0.0
0.9557722940951712 0.7322948687956378 0.0
0.4480049121865758 3.3184566305439036 0.0
3.698080742032017 2.9627208741326205 0.0
4.311632608863938 3.5653722816684765 0.0
2.7195485512051842 3.437917488148764 0.0
1.1035792741068695 2.696961967313669 0.0
0.9659959670525664 2.8477438813401053 0.0
3.1591420311721743 4.257017795270549 0.0
2.602832772440887 3.527596026840854 0.0
-0.4564638856928689 2.8170179144624377 0.0
1.4254782477469519 5.24651532862781 0.0
2.7021192026008407 4.53246175765159 0.0
3.8940897322210155 1.1744755132656366 0.0
-0.08226273947855589 4.946798181427814 0.0
0.4262476098396505 2.953664830445695 0.0
1.3769679307668237 5.462525258690741 0.0
0.4781825247389542 4.587639946150115 0.0
2.6411368843567473 3.4435450216866825 0.0
3.3109247602823473 3.8105352607204024 0.0
1.4998742964048555 1.975119390637853 0.0
1.8913323981931027 3.3382588455168096 0.0
0.07061948370736804 4.509348369589862 0.0
1.5808312435908531 3.28851563131234 0.0
3.410880887334931 3.786454525903019 0.0
0.5782427822578384 1.982663309309789 0.0
4.350137624350578 5.192556851382794 0.0
0.8955710934395227 3.80685833934026 0.0
4.405770159867336 5.244449425797153 0.0
1.5066938708631272 4.605039987389697 0.0
3.7068438901404743 1.7171808565336422 0.0
3.7278615895634726 1.870944026501519 0.0
2.4993383372542644 0.8077276666318979 0.0
1.6396109416609366 1.4716311000403788 0.0
3.7001182603162395 4.943092198506326 0.0
2.142128128150481 4.205173884723369 0.0
1.1022135104600599 4.4955967983248675 0.0
0.8132031609833423 4.2248650862512225 0.0
3.2265733325249437 4.129833773392131 0.0
1.6355752113815485 4.422776592541644 0.0
