-3.5366504575275597 -1.8687170843308796 2.435666238332697
-2.7149833694929577 -2.9374930303537172 5.950938613982869
-1.1259909637288803 -3.8382475623128984 0.5618236342285717
3.4730925413052307 -1.9843457862807015 0.5552836570735619
3.250042518834831 -2.3317855016629956 3.506225888520294
3.9881794522817464 0.3072859521645406 5.252993801606911
-2.2000810001274873 -3.3406052734314535 6.572684008798075
3.9397191130308116 -0.691818842197664 0.17155530008690023
-3.6193943713236645 1.7029340518148595 1.2109903716258226
-2.847465233182725 2.8092599996824164 2.524328332418154
-1.2127735669010988 3.811716185057065 6.813705375717501
-2.3007525494681285 3.2720846116987725 1.049418775950003
-3.455563157208176 2.014716671531127 6.737444446979712
-0.8857041356702754 3.90070867715811 6.3579540837118795
-2.0594993578276317 -3.4290614452219392 4.793557386019414
-3.096820139836453 2.5317395248135877 1.458397257380477
-1.0503445964729063 3.8596342091783993 3.5112638826780334
3.911037491980518 -0.8389193860692095 5.346908648890176
-3.6302496600847345 -1.6796688380316724 1.5047442858552222
-3.03148237327804 2.6096196313839575 4.384840064939197
3.2941163425024382 2.2690961905697957 5.525171198695785
3.9673705440565072 0.5098734805349006 5.173488855569904
-3.0358669717269606 2.604517561848523 6.29055592545204
2.8415044905928646 -2.815289013572245 1.450198235622184
1.093433566369962 -3.847649027124936 3.9756587546755555
-0.8921138947537279 -3.8992477221622295 2.452097146989026
-3.131517450864195 2.488694126431172 1.8249630752847388
-3.5496424896331553 1.843919248717507 2.2038195209339304
-3.9947542697692477 0.20478848639599917 6.737400873023482
3.958672819046628 0.5735063310386598 3.081229528719975
2.715287917858994 2.937211521686678 4.792895986267834
-1.1848800314058108 3.8204789374076866 4.458511575677002
-3.010837891129158 2.6334113224752653 3.0149844840398927
2.4309432726464926 -3.176557067829061 4.537028114841633
1.4243506364782894 -3.7378102231606 4.37775553030244
0.27370147883108326 3.990624951118017 5.075991053143193
1.6906124353898935 -3.625166146993135 4.23628257968103
-3.9870056512444143 0.32215824829593 1.547229415524412
0.43703431948377347 3.9760534457667136 1.2592988500896944
-1.4232973825485091 3.7382114120031473 5.754437862426937
-1.072279150475691 -3.8535979841513215 0.20022943311635422
-0.7784882806589608 -3.923513221193049 2.0728466184190264
-0.3548510625925427 3.9842289998664664 5.2145566377354795
-0.1379521989654695 -3.9976204410624816 4.280747231628503
0.033007836468369155 -3.999863808022928 1.088560729808445
-3.860809456952224 1.0460164134029022 2.9548947029310444
1.4950347078007082 3.7101039368825304 2.2046498487084163
-2.1546979494958123 3.370055896634141 1.468182565496424
-3.020353043044001 -2.622492611119209 3.9361525586868105
2.05400104732088 -3.4323577461571118 4.096583227296702
3.0204877483437285 -2.622337461522722 2.7916656596278533
3.9299104813641557 -0.7455223728796813 1.3194195960213886
3.4013923242623143 -2.1048824804367134 0.6946031979273658
-0.1144795813078163 -3.9983614675843886 6.717717882834725
-3.4702957084402937 -1.9892329416086194 6.980565869190478
-3.9368171926038396 -0.7081457420749099 1.0685679990521404
2.9783476755399656 -2.670102081120811 3.497703232128026
2.510316711099747 -3.11421097711336 0.7056385556698508
-2.893368739665968 2.7619589671687317 0.5606575238706651
3.22945163412293 2.360220782651644 0.789541059042518
-3.8718644687438784 1.0043234218510915 4.204381757604361
-2.2204936511742654 -3.327071977744813 0.5593596546203476
2.8354625517382224 -2.8213741541472603 4.942077627702312
3.919508064535636 0.7984087499771744 3.6387672158521416
-0.9421618093022284 -3.8874581830667134 0.8488381698585424
2.2437922298875117 3.3114039966600917 1.0929140046197183
-3.6697439774663536 -1.59153358112527 0.9045023435602396
-3.441950482461962 -2.0378853933133403 0.2819450293880428
-3.48550617643711 -1.962459348373555 0.9088309491862168
-2.6596150347218663 2.9877161624025472 1.047526552674955
2.8337865123283095 -2.823057562740469 1.0958568098790922
-2.7344791303401594 2.91935333348571 2.1032910324039427
0.990769303754445 -3.8753549755780994 4.4935880215747686
-2.8807016959562435 -2.775168055976939 1.8929830194884671
-0.8559780226218324 -3.907339456047864 4.551580862640041
3.915459903223452 0.8180304066777705 2.8855417670627506
0.8928387825797774 3.8990818032354055 4.593206760959638
3.621728558793293 -1.6979641475664484 2.556513159389972
2.2774838423200707 3.2883228776947995 4.176423096548617
2.7131901606348343 -2.939149392636298 3.534967803487196
3.982016889002919 0.37886870508860276 4.194165348587002
-3.8183608666575815 1.1916880011051398 6.306343177933566
-1.5543892265938912 -3.685630764502712 5.5766661515116
-3.9613171762292705 -0.5549470509075247 4.239567599805193
-3.16242594558284 -2.4492982951662876 1.3800950700124326
3.2367863272287245 -2.3501519678236096 3.8443178695309626
-3.0505436438037674 2.5873120177606013 4.934103381182453
2.1821574036597835 3.352340833753751 4.162225417345139
-3.237968486890051 2.348522956648914 3.5905028403642065
-1.1981133040073346 -3.816349631619282 2.2759003053514197
0.09310072644924096 -3.998916385064162 0.14844045365399072
-0.5275104773217251 3.9650640217171533 6.039730267002688
-0.08926135435496096 -3.9990039273072386 1.7118710512567739
-2.03213444328738 -3.4453489815119007 4.453913258744418
3.9136105077414496 -0.8268329902076443 2.2255527385480893
3.8627305218717187 -1.0388998582157176 5.894285523370903
0.7422853132752348 3.930523185747145 2.3028180071996758
3.154378025355709 -2.4596542995211785 3.973375816046553
1.6783759970808168 3.6308475611657087 6.4897371740395915
-1.2451078087434373 -3.8012769623648994 6.020859495627533
1.6095938691540694 3.661858486667888 0.9443327591977239
-3.5734652994067235 1.7973162643052045 6.935701795565854
-2.2558336601555977 -3.303212753927455 6.797958923756774
-3.3104578849595274 -2.245187874523932 0.2795373084077728
-3.809555414290688 -1.2195439907803678 4.657183934195827
0.7170591034184243 3.9352034562656053 6.140320326769926
2.0798386759480567 -3.4167632464118194 1.0617808567416098
-0.3092430297559557 -3.988028178003179 6.673636136710447
0.09411801730764792 3.9988925715525387 0.4113991262508887
-2.3432419235952047 3.2417922955528544 6.998030815954896
-1.1005873426790287 3.845608859613093 0.38117799582420264
-3.844763858432733 1.103535623751877 3.6938158109612607
-2.6810440040957655 -2.968501818780333 3.6182659046501784
-3.8869656320295403 0.9441918107149617 6.689432051127861
-2.383269541495998 -3.212479773100129 4.372037048999879
-3.210358133007931 2.3861267061557796 3.593002935188293
-2.9183287111529963 -2.73557261531477 0.8702938937644314
-0.9275392718562159 3.890973001597986 6.079831411215858
-3.998770609085942 -0.09916459000290136 4.756274478900364
-2.1812755280128076 3.3529147127376278 1.9532792723012196
-0.7211724327320513 3.9344517181263434 1.9148604627236527
2.049821975657766 3.4348551451422944 3.930854884651855
3.9904647861075384 -0.2760267936916945 5.772388090870533
0.1546902163060702 3.997007747925838 5.690215285796359
3.460892941554856 -2.005547318588064 0.37034961890300677
-1.224410201148826 3.8079941779528355 3.6087503963337024
0.11834743556268396 3.9982488522471606 3.745559138317543
-3.152906905538233 2.461539771161401 1.170587287303635
0.12254437167800443 -3.998122418957434 3.015419848325003
-3.9782739376145067 0.4163369756545395 1.946014091540751
-1.1961056164766248 -3.8169793494637974 5.551277719459645
3.9516679975617253 0.6199355103932219 6.886086270796979
3.2108658052087216 2.385443518707024 4.867258123487529
2.2827084479497355 -3.2846981812122267 4.255103145489502
0.932530082448069 3.889779896771718 3.975360163375955
1.4363045228956828 3.733233091773055 4.563969101445602
1.0315887069487317 -3.864689475196661 2.8942664591328233
-3.977209905642591 0.42638171449823536 3.1286224108860945
3.9995161606251624 -0.062213189101362844 6.385092533588555
3.838353996868849 -1.125628088988958 0.739897001385884
1.4966755573707577 -3.7094423133361882 0.11318579499042913
-1.748762468244091 3.5974754800638786 5.165709163124328
3.9947959766772096 -0.20397329414308182 4.946680170041998
3.923695637368812 -0.777568354096894 5.7493454697873005
-2.9633308951040847 2.686758270876192 1.897930936630432
-1.6371771801753356 3.6496096888178515 3.851534118419475
0.7800362959908119 -3.923205752562174 6.457297221668886
3.908564448246406 -0.8503669525000775 6.054561420745927
-1.9876372979782502 -3.471209871454868 6.895107227851609
-3.2202450047637483 2.3727667625146234 1.3952108832829344
1.388815996911427 3.7511585046119977 4.402886945193023
2.4598125530517465 3.154254619375083 0.7719102726705747
-0.34376541562384 3.985200790301659 1.3326225079893321
0.2327309470049117 3.9932237986752255 0.8540677480646789
-2.084994616086312 3.413619406274093 1.6111838179722793
-2.4542914680044072 -3.1585524200305386 1.8402497182950097
-2.494427132581032 -3.1269527147437923 4.026848680998214
-3.9957544721833447 -0.18424494030176689 2.2311771110221157
-1.1819606181065372 -3.821383139289387 5.046713649084363
-0.8989524441454426 -3.8976768084546127 1.9848298407895295
-3.3895128207487026 -2.123959236421493 3.4175231021147887
0.6521133286937293 3.946485551289905 1.3302631239328142
-3.9775196459240787 0.4234825454348629 6.569781093490413
3.8827055053560824 0.9615601690365347 6.9833112552690535
-3.9996949283885277 0.04940121276942983 0.7821489470965192
-2.061626099008817 -3.427783223584258 1.664071641138445
-0.8525282068398559 3.908093608978989 0.8391388557482762
0.9965702910386782 3.8738672738000566 4.706902501402385
-2.4350707702241934 3.1733941362521856 0.6190089635690209
0.09796459288466143 3.9988001873738255 1.4726786819549367
1.8070788323608749 3.5685383693654265 0.1774110760803993
3.876310419720123 0.9870245842780244 5.124614901406375
-0.3594492421401489 -3.983816793268093 1.4076017096701832
2.457363242174251 -3.1561631605496654 4.711407306968233
0.7152423734667479 -3.9355340612422163 1.4847483654852385
-3.1469479101649744 2.469153468439801 1.694137251992073
-3.3373795419791996 -2.2049711546364295 3.1164687280559207
-3.2373938203520534 2.3493150601710147 4.030400354184104
2.4961068312271104 3.1256120499993845 4.849894989961782
3.914844429737805 -0.8209708222287078 3.954612383733494
2.7317713455198063 -2.9218872866346004 0.2878559547911341
-3.9832083175743 -0.3661304396071355 4.806528355985238
-0.725851035370103 3.933591269368508 0.9757792479938137
3.9133661565493836 0.8279887226127566 1.5967840034316634
-3.8211441478241754 1.1827330220929222 5.295302874047347
-0.06550073315071424 3.999463670788462 6.566845142315372
0.5979659026524334 -3.9550520577187176 2.667093493451757
-3.250053586483218 2.3317700754979196 4.091557286631019
-2.6060433341438207 3.034557322010009 3.6937149180493853
-3.2096225601867587 -2.3871160468523933 2.8863347170747247
-3.772301928033041 -1.330315061839939 2.0077307902170416
3.0080199405523564 -2.6366296738904 5.658283501433461
-3.9998002844506453 -0.039971045877428724 4.00570513813306
2.5607084055574774 3.0729094457382375 1.0565489633815646
-3.9121912191776866 0.8335225639351385 1.4749290877344545
-3.9806508411816637 -0.3929616782839157 4.922145582514278
-2.388539361395605 3.20856349774535 5.1463196959123
-0.37545035877857147 -3.9823406469177196 6.62322372081043
1.0357871077838827 3.863566366370416 6.538764859848407
2.8239929273418274 2.8328543814187372 2.9277790855802626
-3.292201757961553 2.2718731445384135 1.9984712156257305
1.717610577179073 -3.6124526163207418 3.267507994547642
3.9193953496359173 -0.7989618847306452 3.65224773668234
-1.2872683282223583 -3.7872074475998296 6.414104135992533
3.8514963968147353 -1.079803456802723 1.1827650209196885
1.7529297551141618 3.595446741871642 4.699768237198935
3.6795220880013497 1.568794825307053 2.717725906485396
0.7779810566207587 -3.923613828543687 5.950614389643064
3.7020817644582587 -1.5147906156514261 0.05083212868978526
0.9161792307938816 -3.893663521294814 1.6342435155861832
1.5546873284227685 3.685505027922452 2.4221416942282357
-3.98873974541883 -0.2999253962506783 4.846938343772406
1.1597294183885454 -3.8281885632925876 1.6595083466169003
-2.91805590459799 -2.735863618245764 5.48778697892253
3.278948361858047 -2.290959982249457 5.286350993527625
3.728143543229578 -1.4494639426614262 4.375160913837618
0.726940747628678 -3.9333900327118667 5.894601244866965
-3.4329205088079395 2.0530603449986162 3.0403817873612207
0.2857917339592099 -3.989777322708698 5.584215659063075
3.1350369956920745 -2.484259051637331 1.0954765589671407
-2.030955562768217 -3.446044036581778 2.0537421233317934
-1.3951612794359112 -3.7488031429194506 2.256423479152943
-3.9222987204395645 -0.7845844426434646 1.9972907020025827
3.8007534355448738 1.2467049860307124 0.07672218632232142
-1.105061652736415 3.844325525193134 3.6696566076376964
-3.3707430634447038 2.153622808255757 3.530627209380958
-2.003951443263224 -3.4618172414272883 6.179262035631813
3.776760697723926 -1.3176033667716103 0.09282055764304409
3.3944300391907065 -2.116091847968745 3.8629123837395665
-0.8471595495895121 3.9092608889071725 6.892826665989528
3.7251008682439757 -1.4572657689687143 3.514077263893047
1.620624591155742 -3.6569900101779447 4.405791949484807
1.6956289622108784 3.6228224387225576 4.418019107823229
-3.75591657942076 1.375896307296542 4.141029153013304
-1.6684688677304158 -3.6354107934887336 3.0431317469400483
3.824594663772796 1.1715270623594884 3.6164005582668874
-3.913897863975868 -0.8254716896206291 4.569316252405604
1.6177674858816777 3.6582548245883686 4.81235792399496
3.9837481586240004 0.36020911795772875 5.503653184145179
2.611900243206436 3.02951763809656 6.423509639314248
-3.4040388939634116 2.1005997258841 0.04401399437704623
-3.0297987538770372 -2.6115741442672373 0.6447867294601558
-0.2825282057558572 -3.9900097509846235 3.0638895953398664
3.7776048791958154 1.3151811193428717 1.3428892520117381
-2.6811989371630287 -2.9683618814686064 1.0311244489076463
-3.722852777110696 -1.4629993848116203 3.615322783133808
-3.6864097729473886 -1.5525408161842265 3.11391463346159
2.0282826990908185 3.447617915687419 2.952230016001315
3.8334613478612813 1.1421795368739402 2.0940847016421897
-3.8549558502736234 1.0673871801933754 3.4275520290549895
-3.6747509455921876 -1.5799384443291837 0.11445742494331734
-3.1968216646392986 2.404231944819972 3.9623341673393444
3.7597155031646117 -1.3654813566151947 5.928815902411719
-1.7498622286942775 3.596940669595357 1.4616984742865908
-0.34951026921990863 3.984701064284475 6.004396495481019
-0.0028498361260004784 3.999998984804128 2.451863193285797
1.1293360726899073 3.8372646553139043 1.054759277754816
-3.935607198371211 0.7148398283033116 6.80942717975678
0.13622141533986773 -3.9976797928301866 0.5202051097028937
-3.654469155451482 1.6263010766317934 3.1821900606416076
2.8854348255193094 -2.770246535541621 2.914815472729801
3.282925579126591 2.285257018787238 6.468601376367891
-3.97336898632616 0.46080245062436953 1.8194297584347472
-3.7647201900094793 -1.3516219482292344 6.766043610425515
-3.9658041322112987 -0.5219172203863266 6.000024694782746
0.5459390268097094 3.962568684452809 2.4928932032312643
3.022984048050524 2.6194593803363446 5.076800695848643
3.6259055857326286 1.6890259569802133 1.299252618255263
3.8695664911211227 -1.013141239310967 2.1345021473697656
-0.27570439159573484 3.990487074086925 4.523969877939764
0.12664936602555102 -3.997994489501621 5.465139496574449
0.9554379675864196 3.8842165606585755 3.000708104879929
1.2109636242680375 -3.8122915812801645 4.685673306921936
-3.6250508347387975 1.6908596764839914 0.696556636638607
3.394049202288487 -2.11670262730618 0.1028123256277308
-3.59533369660456 -1.7531616040912463 6.187647007853446
0.752427055364607 3.9285943448459206 6.306142702406277
-3.470075920332079 1.98961632158853 4.834027455598955
-3.2807513320795687 -2.2883773065336355 4.7546579271813325
1.6000932563749282 3.666019854133837 5.542007137362507
-3.794958419797079 -1.2642351806571652 2.366444706141095
3.2875788768973133 2.278557685944905 5.564125327439129
-2.708917822557673 2.943087533633581 1.2986885144632487
-3.015531461116361 -2.628035389224701 1.9028325580659038
-1.7502715740335122 3.596741499903802 2.9539060154637795
3.631751036897961 1.6764201161971855 1.8825417079541653
-3.238017892354358 2.3484548385679127 2.5893748425945953
3.1627706343144952 2.4488531835775467 4.738790219617428
2.4957531207617643 -3.1258944896153986 5.531377905834602
-3.995755547858566 -0.1842216104519006 5.037145551489838
-1.6928782306620047 3.624108620909517 6.4693946721366355
-3.367117724317694 -2.1592865096104394 5.599565302084284
1.8771981735982948 3.532156142788598 3.263593096703299
3.9129151527424804 0.8301174660482049 3.428877112893019
2.8858910977739063 -2.76977121289635 6.584735633115031
-2.573223056669597 -3.0624374443609415 2.901436858659965
-3.632281466772721 -1.6752705292398038 5.153093390849533
1.2074570538398695 3.8134036585617763 3.402611240575289
-3.9947641770678826 0.20459513585411437 2.504322114893036
2.324767713610339 3.255066063500856 5.5195733537094025
-0.7938940738324394 3.9204250024115668 4.067895611834918
0.38224908016574416 -3.9816938155403716 0.554359808941906
0.897951541614394 3.897907519286769 5.247856695803194
2.7562158083097867 -2.898840184974541 2.03443561708104
2.632360083050125 3.0117570275778123 4.983720002685809
-0.7728471612156482 3.9246282964633625 6.288838161188524
-3.1814301949771653 -2.4245622108924234 5.4313207994092325
-1.6762601288992205 -3.631824882929072 1.447705231393054
-3.5841593161504988 -1.7758947030867538 0.7404129874758896
-3.563092134992642 1.8177938380227765 1.3697554254416686
3.47944221269752 1.9731907886716342 3.3894675940545045
1.7562369664568969 -3.5938324554228007 5.311534549166963
-3.7605163689684877 -1.3632742345984763 4.20051827959656
-3.405857691751144 -2.0976494901531018 3.3971671136551365
-2.1518227528920177 3.371892471615342 6.498099696890542
-0.7929596944797528 3.9206141002310564 3.377490070681998
-3.6388912003545895 1.6608644833284671 6.221808743763972
-3.352545496038811 -2.181842958828587 4.84508612452785
1.8532569951754052 3.544776228456943 2.218422642600309
0.3030049964086443 -3.988506985345694 0.8715459095015242
1.9089083892484198 3.5151200209177786 6.666726197587428
3.8557083272287302 -1.0646658139242693 6.5682753595349475
-3.989723453668841 -0.28654277733835226 3.240959955405446
-3.416486384212442 -2.0802934375926374 6.305811883536515
-1.8550871218352096 3.5438188117341944 6.571043847643781
-2.6459197810928856 2.9998514149906454 4.268971839736382
-0.04195778227386181 3.9997799370098677 3.663256465878762
1.7975714885096072 3.573336919980728 4.395314955077385
1.1311464954693924 3.8367313700319587 1.4974941067809127
-3.5606118923641477 -1.822647237387148 5.860408066297478
-3.931044170572185 -0.7395212836764368 3.7967026752237585
-0.46834130687503694 3.9724874348793833 2.9795403612646902
-3.9425638249605752 0.67541874871241 5.719541270721535
-1.9970538959219937 -3.4658008795634503 2.9555187643961536
-0.7947996561275241 3.9202415112617195 4.258781989641588
-1.061902244184148 3.856470358215744 2.2510342572778135
-0.6695222369238947 -3.943569445852884 0.19801652580699947
-2.4771685020391097 3.1406426432348704 6.343778539417769
-3.981084014676576 -0.3885486688777028 1.1114797380805177
1.8852159626633247 3.5278833277362494 0.6090763376568805
3.998406997624839 0.1128781703639901 1.1520911481348555
-3.551278199754595 1.8407669999073113 4.6061223455340095
-0.05945823218391098 -3.999558065414923 6.041143218991942
-2.0057155009425167 -3.4607954763722906 0.47961273469597065
2.505655977246284 3.1179621748331026 3.656490598199615
0.6863843377310234 -3.940669554900226 4.522865174337646
3.7010707317369533 1.5172591863884346 4.255212026591125
0.9006734820066395 3.897279471478795 4.546327588929189
-1.2181215697814136 -3.810010477837727 6.475888830268404
-3.917140492070578 -0.8099446680984274 6.583428835868364
2.4711716837260047 3.1453633350617514 1.6399553095738488
-3.5119323789379084 -1.914766556467791 4.798219316814196
2.850929107883403 -2.8057446822230894 4.855679465508225
-0.46732919675472073 -3.9726066281297707 2.9951552954892886
2.652473773396897 -2.9940579288720564 1.4065960602078538
-3.2924729580753533 -2.2714800946392932 6.990128278760053
1.2052105903171386 3.8141142396351233 5.031102348544195
-3.2775384648652905 2.292976583249047 5.116785574723307
-3.166169703782259 -2.4444568735920384 5.0259505144173735
-0.4722987696537581 3.9720188660407376 0.37614668149214026
1.4243994968669227 -3.7377916037849483 5.5716919946117285
-2.8759230501096558 2.7801198912723124 4.863640775427632
0.5314579601951049 3.964536850193886 1.6447044096520118
3.7544855140556743 -1.3797965519402118 3.1269094760349794
-3.1135913406985756 -2.511085216221633 3.131813257354762
3.0850542864859545 -2.5460636381352764 6.487201861388168
-2.5447583630650312 -3.08613105256575 3.1404063039448475
3.355295258357465 2.1776119326555667 3.227157489050718
-3.840587746320824 -1.1179828991582712 1.7309657138742454
3.8709723245886685 -1.0077565491072733 3.6736531402004733
-3.6827185335316344 -1.561276465838965 4.055379530741071
-0.11169222009890949 3.998440301913907 5.686474195134298
-3.1856199766248445 2.419054642733133 6.404777700713874
3.995261701035946 -0.19463797223399187 3.439492823398874
-3.9982483155509154 0.1183655659145267 0.7882150477611272
-2.162327013007169 -3.365165952641785 0.26749080605733633
-3.919135580962855 -0.8002351517091368 0.973492665736143
2.9930600662494355 2.653599713563243 0.2537646873792062
-2.016239870043989 3.454674628158924 1.0116067813056349
-1.20196586035709 3.8151380146117964 6.927435425712304
-0.5096359545465258 -3.9674010628916068 4.769796152695919
1.2089903768238062 -3.8129178156298402 4.964211230418983
0.8999108982042554 -3.89745562839312 6.098659816484174
3.353234652552393 2.180783658440661 4.245239433087406
1.4398815975506478 3.7318548987112288 1.7080063207949046
-0.9093185654324408 -3.895271459931886 6.0729947989138395
2.258589248600035 -3.301329218073885 0.15279929312072082
0.15275849277416612 3.9970820410501164 6.0146313168288925
3.5060859047539994 1.925451019497855 5.685007483832816
-2.9161940186516397 -2.7378481414388927 3.1423038909496492
1.2225651557551767 -3.808586934800533 1.0642940031222559
3.996480704770445 -0.16775570451559713 1.9133858530565044
3.9092133488430165 -0.8473788959064107 1.7298883241901113
-3.9451957120335406 0.6598718009978634 3.4850445264344043
-1.712147373017558 3.6150451412214863 3.3325978900429023
-3.7152545770567205 1.482188728758618 1.4091556728381431
0.61812472191026 3.951951648004232 3.5469658131564166
-3.5683404291077006 1.8074696628146958 4.620880458610128
-2.2806670195749015 3.286115936150661 1.4790580673539648
2.155136294360498 3.3697755938237344 0.12377777335833384
1.8868922660896725 3.5269870394106895 6.511918299789412
-3.648220680130959 1.6402700597964968 4.363003247579613
0.46786712262896174 3.972543310722099 6.416983309492941
-0.3969597495329607 3.980254132244665 0.13928825382636523
-3.6865861723070634 1.5521219005459441 6.6246056540692235
0.6087646041748569 3.9534043123242313 1.4899942051353148
-3.685511380186579 -1.5546722698096909 5.757101162480703
-3.8340461365533813 -1.1402149897190832 4.019133499894442
-3.9981633619422685 0.12120120140697921 1.1107087006887835
1.8422450466078188 -3.550511679779262 3.86880121457953
-2.836798982092063 2.8200304138787997 6.204119853676666
3.6916284404711215 1.5400907302833668 0.17984662643477778
3.805913724582094 1.230861779826497 6.814499684117843
-3.3451955213708984 2.193095283794136 2.398304661891159
-0.398060123616184 3.980144235826972 4.643555876741363
-1.3245478416974759 -3.774330803606721 4.004900777338213
-2.883359861596255 2.772406158652737 0.1858841627303185
-3.2336077653848867 2.3545234803761375 4.5971662973091325
-3.950087301896221 0.6299288113733442 2.50037133339534
-0.2498037924554422 -3.992192137820383 0.2662581711861842
2.8359636593738116 -2.8208704547907018 1.6206952181788832
1.443316943661626 -3.7305276034549406 3.224203481465382
-3.2638660660559227 -2.312396657766274 3.410879479999721
3.1122251096548315 -2.512778316293336 1.3430384423814727
0.6639293631935764 3.9445149005535995 0.16984213636190726
-3.8563199885433415 -1.0624481850711978 4.769169879784946
-3.993148533593347 0.23401877843733618 3.547500642504386
1.8342152461819976 -3.5546665709562006 6.116196992804366
2.271025176129984 -3.292786760387586 6.628991162137412
3.985438147025411 -0.3410026044396967 6.504553026714665
3.3740321492727294 -2.1484662100377667 0.4053594764645243
3.1600275974426966 -2.4523918087044208 6.256275354921608
1.602475183930348 3.6649793021090034 3.8566605340586886
-1.9623661705787419 -3.485558637086475 2.6419764424479633
-1.4031838967468193 -3.745807650148418 2.327402914491609
-0.7451663725132556 3.9299779995917836 4.33997121677033
1.0849447219377077 -3.8500512919102143 4.215726557484268
3.975143052524958 0.4452389380574903 3.912145021052015
-3.4781032376856666 1.9755500165777837 4.19827665513831
-3.7156190263475457 1.4812748735613241 2.8149440460379918
0.757943964870422 3.92753369764239 4.68681963419085
-3.816422654614068 -1.1978806790947547 3.114508022343639
-0.2347790913764548 3.993103902761916 0.496304416039536
-3.6577930625728996 -1.6188112649081636 3.3287980865291678
3.7232218323786825 -1.4620599122124667 0.4717915886251318
-2.1091844557729185 -3.3987263690279477 3.4578720443485214
3.8351914005505345 1.1363568634646557 0.29715737827356625
-3.7820910825431278 -1.3022238837265085 6.709671065873709
2.682492248290574 2.967193175015907 2.667940032845434
1.4310438763884565 3.735252792496259 1.3367521365966035
2.930855106341696 -2.722147745004081 0.3214505633660897
2.467009292868069 -3.1486290903983263 0.6918672458612166
3.8114436453338234 -1.2136298193619075 4.618636423735109
-3.9999734851129998 -0.014564284842126537 6.306004888146569
-2.7311900963123623 2.9224306078682636 4.249268296834407
3.73498296536801 -1.4317479695850055 4.763446209159785
0.4886696096685658 -3.9700380366674537 1.1736782503812295
3.559242224914231 -1.8253204607376738 5.856382310004289
3.229078277643955 2.3607315554395316 3.2045970945959397
3.962549454830664 0.5460785822765881 2.990042557378738
-0.8310858375451375 -3.912709589355169 5.804832566389327
-3.674163612460162 1.5813038129574246 2.762640782596553
-0.898639674878895 -3.897748931721174 5.020185590605486
-3.0921455643319096 2.5374467105699967 0.5806608108510993
3.505608730790555 -1.9263196584692361 0.8114408220971221
-3.09262309151651 -2.536864681810771 6.887334933978868
0.4567624613197098 3.973835433674772 2.039592152318511
3.075489758937916 -2.557608793906527 4.710204407193866
3.5086051011413133 -1.920856643335248 1.7935562901445645
-2.0161867043061266 3.454705656547197 0.41330464770061315
-3.8082626918334475 1.2235747913345816 5.889691395272448
-0.8055461263778242 3.918047401229046 3.979042129982172
1.7834542246915683 -3.580403752152793 4.150477780579869
3.445193789760775 2.0323975376372085 1.6097192573098615
2.9248079821432538 2.7286440346060363 1.372254146571711
2.6628971629602853 -2.9847912321464065 2.7177194085355194
-2.109134626098999 3.3987572918627533 1.7793587446769363
3.984864301161479 0.3476442165905215 5.543234927293657
3.4514646483874616 -2.021729898114883 1.6400082753092486
3.792028747076543 1.2729956721627547 0.630481208379587
-3.9144270110168353 0.8229587932708439 4.5048067827279095
2.226092453064474 3.3233285107568573 3.2614995884133293
3.284117149936512 2.283544294620291 6.509016040282409
-3.9747201253235223 0.44899880328143665 6.7809329165795456
-3.835134319837033 1.1365494924587054 0.5188244425441466
3.1975349679568157 2.4032831977720406 3.96488217768517
2.824746845998409 2.8321026210259475 5.435486377615243
3.730621550785421 1.4430740954002952 2.8247420477763256
2.860352816629102 2.7961369359174744 6.3431961187398915
-1.5491923331467008 -3.687818205242699 4.051030823955536
-1.2683639890305958 3.793580471181598 2.4880016120432757
-3.8818254487618407 0.9651068258721077 4.668665739607674
-3.7787376550044476 1.311922914904488 6.351761079561683
3.438263494658365 2.0440998364315885 6.185480923895476
-2.39977620124872 3.200167836836103 6.6608028952712255
3.0360173863435307 -2.604342225941091 2.863095904058415
1.8642367924620868 3.539014153917821 1.6840843869437194
2.6856955700656036 2.964294065191575 4.596047130222249
-1.893615329548072 3.5233820377161127 3.4728913669567927
2.747833011386443 -2.906787529479049 2.266002628669487
-2.5708469804017313 -3.0644323786566576 0.42031150579985976
3.1629967180738308 -2.44856116146895 4.128475864118475
-0.923305730401223 3.8919797697583505 4.319016382366105
-1.0731475308004157 3.8533562484069614 4.330544597003932
-3.5607167623162708 -1.8224423553462357 0.09120662168074789
-3.090883368514514 2.5389840492292133 6.766030572544599
3.7143433025662125 -1.4844708925005976 3.229795068678916
3.903882026512672 -0.8716106487826505 0.00279509033488623
0.12857455038047222 3.9979330390833785 3.6506440157763578
-0.5032651347280803 -3.9682142336531085 4.584934426873836
2.3592965887439794 3.2301268715548965 0.6400748095578943
2.7376538780788575 -2.916376389261131 4.81747472631391
-3.782889871691181 1.2999016188374717 0.5917922835060576
3.6107419378991863 -1.7212038397284701 1.1173013560566507
3.3179399319332337 2.2341160686237607 3.081159988947947
3.4164327357288053 -2.080381542467773 5.388515308474546
-3.3770222416136537 2.14376322844821 2.993761295300406
0.3593266580215686 -3.983827851807235 6.144652796402439
1.484152740995941 -3.714470438890884 0.3530124130091443
-1.7872317569806613 3.5785196166627085 3.411455353184622
3.57357465810408 -1.7970988183615022 3.247422916278067
-0.5826482627533187 3.9573376153558772 5.0358910915576
3.863061469649099 -1.037668579900415 5.449126648512446
2.7417954683584846 -2.9124830659917795 5.727225678092375
3.760713744501297 1.3627296620823344 4.2333769562239745
-3.9918743809034134 0.25483117369543207 3.9244802777199848
-0.7211860984542067 3.9344492132185924 5.492679705924367
-3.9287988524302926 -0.7513584877689324 0.7940861738329092
3.931101387753317 -0.7392170717752289 2.492770452223145
-0.12124180473580926 -3.9981621308776867 1.8807688736303587
0.22224999227012893 3.9938208448722294 4.077193993304203
2.5399602454033268 3.0900812209019155 5.630044272464272
-1.801350816851498 3.571433218559244 6.653042916798175
3.264856349032563 -2.310998273513367 4.926395440501027
-3.9337115881412767 -0.7251986909275511 0.9257101745978781
2.520681657027814 3.1058274233967853 6.231171598242266
-2.100671808676783 3.403994411310132 0.4204142865645568
-3.900638029256539 -0.8860152169786166 1.4244555481070114
2.563105535227399 -3.07091029098648 5.3889888222402105
-3.8142817522657397 -1.2046803369909371 0.2325445835152412
-2.4928717125543742 -3.128192868853553 3.282805008083691
-1.1469966105978633 -3.8320228046394784 4.413814598588033
-1.6348790775828594 3.6506397249909255 0.8310497238569254
-0.38231068261687895 -3.9816879011239714 5.255444216602318
-0.4837342216224533 -3.9706424168931806 3.306061297087356
-3.7751859783238735 1.3221084785549253 6.2761357763867105
3.8094208282204067 1.2199643246917307 1.578073177013763
2.745085330475921 -2.909382499501553 0.9664750259030155
-3.3975983467604194 2.1110010597086073 0.6721785402716043
0.48398532959654056 -3.9706118169288884 1.5650104338404631
3.8574349836610238 -1.0583928131029985 6.334376413477784
2.8397667148137167 -2.8170418891873283 3.5410685560349626
3.9205106108829306 -0.7934712029773667 4.4239853888837875
1.1170754447527114 3.840851787134012 2.562024789770518
3.526598465020229 -1.8876184112571492 3.8557248103257145
-2.79643457814364 -2.8600618262832365 3.958027112406822
0.7766018459585832 -3.923887048941868 0.17159475666467405
3.5329817149668585 1.8756439432125265 3.3151150751006924
-3.086418178409575 -2.544410113952332 5.455655150077808
2.4549316740547895 -3.1580548563510655 1.473707180829276
3.9600701021781712 -0.5637772484187068 0.8509951825911077
1.6676441970837448 -3.635789162194765 1.9263731583840267
3.852779619344074 -1.0752158875160518 5.6289296674855684
-0.6906898340443329 -3.9399172013061152 1.199072601924295
0.18717834593539406 3.9956181332570924 6.131982411308562
-3.521133947518794 1.8977923288997443 2.22484595049152
2.02558853036113 3.449201517115148 4.682459936295497
3.1945726306240005 2.4072194971934016 4.60935419452103
-2.5839286316645973 3.0534100324823594 0.5663234619351761
-2.9432787560236324 2.7087100554212107 1.154282169047725
-3.8577106737108617 1.0573875155009587 0.6864065124703819
-2.082421705843658 -3.415189575855371 3.7659278744863416
-3.206728442297774 2.3910024461213943 4.430325463353476
2.886942092454382 -2.7686757402800195 5.805438439556764
-2.6581280361434803 2.989039200724541 3.1388375018811545
0.29371999610888216 -3.9892014945206515 4.6973718731913525
3.9355543812006872 0.7151305563406407 0.650381083232988
3.9912302557959634 -0.2647282478672994 1.5497726564609708
0.2901455236986367 3.9894630685190764 3.6325186334645196
-3.093744808924681 -2.535496609591815 1.6346831271813471
1.93841796609867 -3.498933521618537 4.510293817428729
-0.5070647715601515 -3.9677304995983094 4.353436204897256
-0.3981815151269735 3.9801320934123767 5.531993707420884
2.6212177504102576 3.0214594991384858 3.8440585533001155
-1.5321206074174323 3.694943361450462 6.693507398975283
-1.3302619675879503 -3.772320651480867 0.8233969053732784
-2.900350320774762 2.7546266565147692 6.68404463704685
3.9249299085077554 -0.771313952487121 1.949178469398443
2.7649415983260393 -2.890518631292012 0.13483470278105514
-1.4150276996203932 3.7413495705837243 3.184139448777549
1.4429463853998972 -3.73067094888592 3.8764622713647103
1.7975251428489858 -3.5733602338451314 4.728959468401708
3.5923473581076935 -1.7592727073130747 1.1997786850037588
0.2470339107767967 -3.9923644932453652 2.5561310798516805
-1.5510028853832816 3.6870570987622004 0.9624554409545706
2.8688060080660738 2.7874633787879612 0.9667846766736736
-2.530074010058946 3.0981809991710048 3.8135600093897133
3.7746247523664844 -1.3237099300157333 1.0992318171577513
3.9651942366423394 -0.5265307832390945 2.662694929695498
-0.41788665865583324 -3.9781114540089826 6.521552780760199
1.6080643678697357 3.662530407899395 3.234726174556929
2.4906738528259105 3.1299430919506084 2.778254944587267
-3.10129899979702 -2.5262510789424715 0.1224428454302916
2.9240069372221 2.729502414557832 5.78354721672442
-1.2880906781033088 -3.786927832027349 6.810718117897953
3.3173937131817945 2.2349270573649394 5.118077069377599
1.28090014688901 -3.7893660173833448 5.891666032603826
0.2752826536928625 -3.9905161897398456 5.078329351853686
-1.1046101470367202 -3.844455283010002 1.8335064110767552
3.7850638613376075 1.2935577163760568 6.71893039013015
0.6697619164123122 -3.9435287466080053 0.01649482556855697
-2.809298930144052 -2.847426824536758 2.938709891247166
2.5523132770186874 -3.0798858641115467 3.7898703358112376
3.230622645395536 2.358617672082008 0.9117887181770222
3.7480782920360123 -1.3971074106053583 6.370152376662156
-1.7243539393426741 -3.6092386304972135 0.7889099769614948
-3.4450907972338594 2.0325721140502178 1.7532079723638359
-0.5204097472217006 -3.9660022308360654 2.910400617101442
-2.25862083150228 -3.3013076105543315 3.1973202259867284
-2.8091346226064986 2.8475889225928386 5.467436075949934
0.1001962387231696 3.9987448923063007 3.1492486573394665
-3.5214959240503827 1.8971205699418632 1.9821855782073428
-1.2919830361968492 3.785601647582531 1.7870357811725888
-0.6819443730765704 -3.9414403296294114 5.975884451173388
-3.9278327927245784 -0.7563924592415229 6.954054767728009
-3.922416062286156 -0.7839975984144135 4.284061912492882
-3.1875309529133546 -2.4165360382620573 1.5719649789269279
-3.9476114841305687 -0.6452624042670138 6.556971576494884
0.8932029482595216 3.8989983961551586 6.30534574462574
-2.4428040424535573 3.1674450918954475 1.9632515932298396
3.8131980488004964 1.2081062207538238 3.94349638172052
-3.3364108127144294 2.20643669494555 6.10927468445217
-1.6678783551735452 -3.635681750695953 5.358520040923311
2.880101541537258 -2.7757908981828425 0.6376110992281463
0.8077285661475893 -3.9175980604739378 2.208304744315635
0.9921019611373003 -3.8750140256142975 6.835941499370783
1.6034154997917223 -3.6645680147907833 4.846036115113548
0.6147808678478146 -3.9524732111082406 2.423760724080614
0.839686864613575 -3.9108727887001673 2.393966003355544
-3.6810607780826166 -1.5651809953043134 4.557490557446689
1.430068695944749 -3.7356262560484934 3.0263008745996425
-1.3923936911282895 3.749831970756308 6.1446751163662245
3.9996580202334657 -0.05230412203751039 6.442692738174437
-1.5580213463336459 -3.684096834282277 2.2398960980086304
-3.7771199901894934 -1.3165730438190364 1.7596012168732624
-3.5929867766258465 -1.7579664453543502 3.343097662373302
2.366268214399141 3.22502321503649 1.4962705763264879
3.9973089186230393 -0.14670176923510173 4.354973094284643
1.2399790839114553 -3.802953046181626 0.40899650102045804
-3.9226566978306603 -0.7827927126412574 5.896623614029618
0.7365509091784683 3.9316018056497497 5.975453128120363
1.8621783111331838 3.5400977299426586 5.150684132893371
2.299909530714909 3.2726772145334966 3.472246137281386
0.2521007940526314 -3.992047743907634 3.498800451009355
-0.21330588758536762 -3.994308525680186 6.655921091165013
1.9130580112261748 3.5128633684906325 4.876804932188702
-3.5169660106224714 -1.9055052033847237 2.456021819172301
-3.0590443223672517 2.5772558727826542 0.4464926785834118
-3.9448509607652533 0.6619296770424016 1.0727122344021658
-3.9400798201618352 0.689761560797265 2.5542986683518745
-3.713072663804411 -1.4876462594677597 4.342715761712524
-3.748887199497686 -1.3949353983043082 0.27225563158054433
-2.9093699756233398 -2.745098603864977 5.546637453042949
-1.9672571872893034 3.482800476492815 2.912307400197809
-3.329094273329874 -2.2174605564208436 1.1101274456662709
2.5802074767160654 3.0565551487088394 2.246093010571682
-3.944129339067364 -0.6662159985380395 5.805878886848191
-3.9429337137802674 0.6732560647591291 3.9450950375464187
-2.281985100532018 -3.285200755045249 3.953646407569223
3.065605501941273 -2.5694479769918277 1.5952826902516906
-1.0342600456486695 -3.863975434442462 4.120569516764834
-2.766353000270601 -2.8891678867614883 3.4368766338527545
0.9933546264111325 -3.874693095741597 4.1297010512854335
1.3972887676422596 -3.7480106856598976 0.6913141809727761
-1.9519440550357618 3.491405792229048 3.2730118549471445
3.790194864448544 1.278445497277019 6.329237754136688
-3.7799417783668052 -1.3084495222045032 1.1871427882082566
-3.3777696336444123 -2.1425854246749867 0.45122880375321617
3.9994527139009324 -0.06616637567879527 3.378916980947451
3.80999852152139 -1.2181589658188396 5.037891456522243
-3.9859900294033404 0.33448988848268113 4.5181599138127355
3.0183222286459297 -2.6248296942967304 4.944956901128666
0.10606564720290859 3.998593512534555 0.007580509024161075
3.7246103245715343 1.458519088011922 5.444458754406008
3.997023321435172 -0.15428729015491172 6.699265037467771
-3.8821331296251684 0.9638684370113466 5.632328631414504
1.9705487909145196 -3.480939163878812 1.6806395037926694
0.7358695249153002 3.931729395863979 0.1812236503756769
-3.8151053106043284 1.2020696606264756 4.9714668162005795
-2.059282710387311 -3.4291915546816414 4.260591720544442
-3.8986077271059734 0.8949065818003561 3.571270465913308
-3.8412595341502613 -1.1156725287017324 1.0571207691229918
1.8801419682463933 -3.5305900610575818 0.9414672750725456
3.4887824291273506 1.9566290302998834 6.04453125739443
1.3288153028019334 3.7728304879810604 1.4307995137735001
1.9636814275799188 -3.4848178217774444 2.8336834776170186
-3.9999677650117227 -0.01605860725980071 0.7347318002940708
-2.438720541959098 3.170590184528225 6.301185373748256
3.4071122167219143 -2.095611209805932 2.743273919617567
3.9032919099361685 0.874249544367544 6.543683229615548
-3.2506756014692986 2.330902858124339 2.4356519454994943
3.381032214805693 -2.137433311812584 2.297251156988901
-2.169634073824958 -3.3604594902628593 1.0439000713375324
1.5348022901690743 3.6938302519325066 0.3838149982237856
3.3175459068994217 -2.2347011333990263 1.0352515850958595
-2.701187414540906 -2.950184155527552 1.8505629438469005
-1.4387989699777324 3.732272434320814 3.9966217234190577
1.5317463230672552 3.695098537491246 1.5881816258732626
3.962967641344189 0.5430354257862694 3.558294256489729
-0.7578140552628037 -3.927558765651527 6.184576482291841
1.6461811389777998 -3.645557249265708 6.859915259836165
-3.8437251099443506 -1.10714826431842 1.40659364501877
2.7646143986533462 -2.8908315804900493 0.5478660833218767
-3.1324855261304916 -2.4874755131624866 3.999605677509687
0.3507410147332294 3.984592920309916 5.767670693080167
2.8910880041139184 2.764346243231589 4.8129087565869195
-3.892100901010931 0.9227949806700844 5.547421669635918
-0.7245021276073981 3.9338399391805905 1.1511547403058673
1.9300119647700944 3.5035772884074188 0.19989483210970904
2.9935957048363866 -2.6529954308262833 4.449312715483753
-1.4815713328977413 3.7155008256674646 6.413667662914505
-2.5005656862387444 -3.122046003633732 0.07883603342692513
0.6738235550761081 -3.942836772759506 2.345566818064488
-2.2254852889689167 3.3237351321341686 5.297399189014466
3.663853173809798 1.605048261194619 5.720773883552118
3.8212982368973036 1.1822350801281263 6.31454847600576
2.809943403625756 2.8467908367879966 4.548627799812984
-3.9996679845934735 0.051536521205651414 2.5749816960901297
0.2425361747110872 3.9926402547633204 4.988487338531362
2.5081803227722843 3.1159318780194667 5.935295221735147
2.462838936384087 -3.1518921893729965 6.0228417443050715
2.0533256168522507 -3.432761848887616 0.05397494981400408
2.9699418320549404 -2.679448733267749 4.172239542354803
-2.5839053371145417 -3.0534297451932617 0.21823407761907143
-3.5530492836943144 -1.8373461262482143 3.490870345228326
2.9519316157434146 -2.6992776322517242 2.918880067561912
-0.6782018228021428 3.9420860324893785 4.5716889282112065
1.6045266646621885 3.6640816287834026 0.16837183051099092
1.418582692799982 3.740003094074703 4.529897705672748
1.6435319785898679 -3.646752340830465 2.9856488339181553
1.9494898633686344 -3.492776728138079 6.489550100585314
-3.458110518391169 -2.010341175669533 4.482719034415736
2.1743092022692276 3.357436446595431 6.497804891746195
-0.18494532072648623 -3.995722116006239 6.384689991812263
3.563778897484402 -1.8164470732297322 2.4200973895261546
2.8543367901440093 2.80227791063456 2.8648112390794926
3.1392429016384913 -2.4789421139898256 5.01688169712798
3.6294948548403387 1.6812992293721862 2.3802700432865875
3.0521221707595854 2.5854497200212183 2.7227887844089103
-3.9991357118185413 0.08314781090088023 4.5394577364117925
3.693766161141508 1.5349565292886733 1.8737720399685531
0.5584676685155314 3.9608223720867395 2.791781282171157
0.9332384412199319 3.8896100076780695 0.14295529918881344
-1.2823796918941344 -3.7888655724131337 0.04070240523747026
-3.1287516404181104 -2.4921703739072463 2.446335194611626
-2.3242032039873615 -3.2554691622828935 3.6169613955200393
-2.929210551272234 -2.7239173163507395 3.3415478839407693
-3.9770559874256812 -0.42781499842986 2.26212461246059
2.7298754071850593 -2.923658711485697 3.7417165201456095
2.940636203297284 -2.711578639806955 0.34902113916020927
-0.6339401897342113 3.949445509921583 0.03261818618574164
0.17077584519033331 -3.9963527885685375 4.133593719886143
3.9994875211614995 0.06402786950574786 6.842534027020165
-0.9937695319019021 -3.8745867027934056 1.4182629776576143
0.07380785860307033 -3.9993189920295715 6.340729711327587
3.018315389987125 2.6248375581294296 1.808526428716028
-0.07321981723107486 3.9993298011497687 2.510328008328454
-1.8030188543027725 3.570591409140609 6.781063954303418
-3.679392686357052 -1.5690982950670227 3.220505034406294
-1.005357744563732 3.871596028183432 4.736369419514267
-3.7076652922408755 1.5010723102876764 1.4858184860503454
-1.941603194643331 -3.497167001238404 3.224632903706772
1.1160008397896422 3.8411641628012743 0.3398527130722687
-3.6800804947197014 -1.5674844663930798 1.5173405637252806
3.947299433650264 0.6471685878535097 2.4132790757251685
3.6354633301441144 -1.6683543913621786 4.945732390023616
2.873562173172069 -2.7825600509089856 4.623972847819866
-3.438729813807311 2.043315263886789 4.938376768584211
1.7270350544576207 3.6079564743320507 0.1891299261153041
-1.6152240358541814 -3.65937854204767 2.166272422803262
-2.219474029114349 -3.3277522495052 4.539160221090147
0.1057142817412741 3.9986028173145587 1.6083933250092375
-3.9957528164803406 0.1842808443366449 3.9724587823511412
0.9034830351907374 3.896629107975576 1.6245904962001736
-3.12832320413771 2.492708151880916 0.21867960764836458
-2.1366783855062934 -3.3815093489313646 0.12526564801693385
-1.2667742887292455 3.794111608982334 0.1421363983669729
3.488002732875539 1.9580186248993572 1.388414693391132
3.464797325634208 1.998794509767835 1.3579392084097095
3.690290156348629 1.5432947100137462 4.58716784602109
0.958003426503295 -3.8835846115165236 1.4000068168819844
-3.9247616905825 0.772169458173526 0.8222863261683986
-3.8738851092038833 0.9965009586991964 4.643727087319966
3.997441855740292 0.14303359736652202 5.4531243514403975
0.9985225577366699 3.873364519599339 2.595028801817378
3.668463041351335 -1.5944839021574713 3.2374677283063455
-0.48583116626137235 -3.970386388991519 1.797082063172091
-1.4072770964696244 -3.7442717815019817 4.408890204045217
-3.896680515988229 0.9032612890618684 3.833153849502258
0.7703980194930748 3.9251097935677097 0.5603878199408802
-3.095864507027309 2.532908003487011 4.508254152477076
3.9552983417115564 -0.5963346611205942 2.026881585334053
-1.5297962482266159 -3.695906308189071 0.8276891728833404
3.9787710868035044 0.4115587914459598 4.606917181672811
1.6506056542031338 3.6435560890855854 4.159278895174007
-1.7837911811706983 3.5802358891527866 1.0260204520751302
0.2859736549460269 3.98976428735794 6.978996134832955
2.119484823658919 3.3923124977335917 5.569380433739478
2.9890641795976216 2.6580999473771483 1.3970994367180225
3.9497497592679798 -0.6320418017524906 4.893529063673511
3.816630632212048 1.1972178654115813 1.1133775453485746
3.9840255372157367 -0.3571281546068011 6.579722590497393
3.90409223880472 -0.8706685884449656 4.748108434418799
-3.693968994987045 1.534468332704979 6.399592568632569
0.5106166580080098 -3.9672749625611696 6.259127648870661
2.5265620587383397 -3.1010456564429814 1.4834132965761937
-2.6320398527351436 -3.012036887824245 4.99871079013789
3.7276298884807004 1.4507844135175159 4.060671147765112
-2.1555640074781954 -3.3695020121175983 5.608909800374662
1.065533006016569 3.8554687669710535 6.269519904430344
3.9973551423253397 0.14543681145144335 3.886869308249099
1.7372171164839973 -3.6030649023012375 5.431670343061231
3.2204641258892357 -2.372469349403798 2.69340348771936
1.8649965707433944 -3.538613823394039 0.0015330008963118091
-1.4844849899378652 -3.714337668366889 4.404930201436958
3.487345282908971 1.9591893419913633 0.6302680848794797
-0.7543935772569235 3.928217194936337 2.987138133257457
2.460888340869673 -3.15341538237063 6.212668132191358
3.842341585194803 1.1119402603929254 4.301866077457326
-0.7252785672524594 3.93369686171726 3.3039811077912242
-3.9321557336892625 0.733587953836933 2.0802692221535755
-3.7474817321342297 -1.3987067838972662 6.560857260813092
0.5246433757648552 -3.965444404889073 2.074495173505836
0.6477150820716256 -3.9472097958503483 1.532444861768124
2.28005875119345 3.286538009989564 6.976238591786666
-3.94821216668375 0.6415767193800028 2.8507863475384947
3.2768863936717256 -2.2939083597583214 3.560493116852311
1.7361339498317003 3.6035869502818687 6.148669025683647
-3.9072910252768 -0.8561990678524318 3.057290116511056
-1.170369414109522 -3.8249490760684557 5.8653045879524415
0.6192782892115254 -3.951771046064188 3.1082181578188512
-3.734574850989512 1.4328121587830915 6.431808659427977
3.8015661543767583 -1.2442245673097376 6.593041556004139
-0.2986659896467511 -3.988834244065342 0.3701998542674123
0.5903337990256567 3.956198428507844 1.9485651814241634
